# .PCD v0.7 - Point Cloud Data file format
VERSION 0.7
FIELDS x y z intensity
SIZE 4 4 4 4
TYPE F F F F
COUNT 1 1 1 1
WIDTH 1681
HEIGHT 1
VIEWPOINT 0 0 0 1 0 0 0
POINTS 1681
DATA ascii
18.82 -14 -2.24 8
21.93 -16.389999 -1.8 3
18.77 -14.03 -2.24 6
21.790001 -16.35 -1.79 5
18.790001 -14.1 -2.24 5
21.34 -16.17 -1.76 3
21.33 -16.23 -1.76 9
17.379999 -13.6 -2.1099999 6
17.26 -13.57 -2.0999999 6
17.889999 -14.13 -1.49 6
17.6 -13.9 -2.1400001 9
17.940001 -14.24 -1.5 6
17.440001 -13.84 -2.1300001 8
17.870001 -14.25 -1.5 8
17.049999 -13.59 -2.0799999 4
17.879999 -14.32 -1.5 4
17.02 -13.64 -2.0799999 4
17.709999 -14.25 -1.49 7
17.08 -13.74 -2.0899999 3
17.73 -14.33 -1.49 10
17.09 -13.81 -2.0999999 5
17.719999 -14.39 -1.5 2
17.559999 -14.26 -2.1600001 6
17.68 -14.42 -1.5 2
17.610001 -14.37 -2.1700001 6
17.52 -14.42 -1.49 6
17.049999 -14.04 -2.1099999 7
17.49 -14.47 -1.49 5
17.01 -14.07 -2.1099999 6
17.450001 -14.5 -1.49 9
17.450001 -14.57 -1.49 8
17.51 -14.61 -2.1800001 5
17.370001 -14.57 -1.49 5
17.51 -14.68 -2.1900001 6
17.4 -14.66 -1.49 5
17.459999 -14.71 -2.1800001 6
17.360001 -14.69 -1.49 5
17.27 -14.68 -1.49 4
17.48 -14.86 -2.1900001 12
17.24 -14.72 -1.49 5
17.450001 -14.9 -2.1900001 9
17.25 -14.79 -1.49 6
17.370001 -14.89 -2.1900001 5
17.17 -14.8 -1.49 2
17.309999 -14.92 -2.1900001 6
17.18 -14.87 -1.49 9
17.24 -14.92 -2.1800001 6
17.23 -14.98 -1.5 9
17.18 -15.01 -1.5 6
17.09 -14.93 -2.1700001 9
16.98 -14.9 -2.1600001 8
16.26 -14.59 -2.0899999 6
16.32 -14.71 -2.0999999 5
30.040001 -27.209999 -2.6700001 8
16.059999 -14.55 -2.0799999 7
29.98 -27.27 -2.6700001 8
15.94 -14.5 -2.0599999 2
15.95 -14.58 -2.0699999 5
17.690001 -16.389999 -2.3099999 9
17.639999 -16.41 -2.3099999 9
17.530001 -16.379999 -2.3 7
17.48 -16.42 -2.3 7
17.57 -16.57 -2.3099999 6
17.59 -16.66 -2.3199999 6
31.17 -29.66 -2.8399999 10
17.52 -16.67 -2.3199999 8
30.809999 -29.459999 -2.8099999 9
29.08 -27.92 -2.6600001 8
16.530001 -15.87 -2.1900001 13
29.25 -28.219999 -2.6800001 9
16.469999 -15.88 -2.1900001 11
16.41 -15.9 -2.1900001 12
16.389999 -15.95 -2.1900001 18
16.389999 -16.02 -2.1900001 8
16.35 -16.059999 -2.1900001 7
16.309999 -16.09 -2.1900001 10
40.709999 40.549999 -3.8699999 25
30.700001 30.57 -4.21 14
40.860001 40.5 -3.8800001 25
30.780001 30.51 -4.2199998 14
41 40.470001 -3.8800001 25
30.780001 30.379999 -4.21 21
41.130001 40.41 -3.8900001 25
31.120001 30.58 -4.2399998 14
31.09 30.41 -4.23 14
30.85 29.780001 -4.1700001 21
31.23 30.01 -2.9200001 21
30.870001 29.67 -4.1700001 20
31.01 29.66 -2.9000001 20
30.93 29.59 -4.1700001 20
31.059999 29.58 -4.1799998 13
41.939999 39.040001 -3.8699999 24
44.91 41.810001 -5.98 27
41.91 38.84 -3.8599999 24
44.970001 41.68 -5.98 27
45.240002 41.740002 -6 28
45.25 41.560001 -5.9899998 27
42.57 38.93 -3.8900001 24
45.5 41.610001 -6.0100002 27
43 39.150002 -3.9300001 24
45.599998 41.509998 -6.0100002 27
42.860001 38.84 -3.9100001 24
45.689999 41.41 -6.0100002 27
43.119999 38.91 -3.9200001 24
43.869999 39.400002 -3.98 24
43.810001 39.169998 -3.98 37
46.150002 41.07 -6.0300002 27
46.150002 40.889999 -6.02 27
31.719999 27.98 -4.1300001 19
31.73 27.860001 -2.8599999 12
31.77 27.889999 -4.1300001 19
31.83 27.83 -2.8599999 12
44.630001 38.66 -3.99 24
44.439999 38.490002 -5.7399998 24
44.849998 38.669998 -4.0100002 37
44.509998 38.380001 -5.7399998 24
44.610001 38.290001 -5.7399998 24
45.709999 39.049999 -4.0700002 25
44.779999 38.27 -5.75 24
45.66 38.84 -4.0599999 25
44.939999 38.23 -5.7600002 24
45.779999 38.759998 -4.0599999 25
46.189999 38.93 -4.0900002 25
45.27 37.470001 -5.7399998 23
40.080002 33.02 -3.51 18
45.299999 37.32 -5.73 23
39.889999 32.709999 -3.49 18
40.080002 32.720001 -3.5 18
37.389999 30.389999 -3.26 15
37.540001 30.360001 -3.27 15
37.869999 30.5 -3.29 16
37.889999 30.370001 -3.29 15
37.970001 30.290001 -3.29 15
38 30.18 -3.29 15
37.77 29.860001 -3.26 15
37.759998 29.709999 -3.25 23
37.869999 29.66 -3.26 22
37.700001 29.530001 -4.6799998 15
38.32 29.870001 -3.29 15
37.709999 29.4 -4.6700001 22
38.450001 29.84 -3.3 15
37.75 29.299999 -4.6700001 15
38.549999 29.780001 -3.3 15
45.380001 35.049999 -5.5999999 21
50.360001 38.709999 -4.3000002 26
45.57 35.040001 -5.6199999 21
50.349998 38.540001 -4.3000002 26
45.869999 35.110001 -5.6500001 21
49.25 37.509998 -4.1999998 25
46.049999 35.080002 -5.6599998 21
49.290001 37.369999 -4.1900001 24
46.389999 35.169998 -5.6900001 22
49.610001 37.439999 -4.21 25
46.66 35.220001 -5.71 22
50.119999 37.650002 -4.25 25
46.799999 35.16 -5.7199998 22
50.389999 37.68 -4.2600002 25
46.970001 35.119999 -5.73 22
50.77 37.779999 -4.29 25
47.330002 35.220001 -5.77 22
51.18 37.91 -4.3200002 26
47.470001 35.16 -5.77 22
50.900002 37.52 -4.29 25
47.779999 35.23 -5.8099999 22
50.759998 37.240002 -4.27 25
47.970001 35.189999 -5.8200002 22
50.990002 37.240002 -4.29 25
48.080002 35.110001 -5.8200002 22
48.369999 35.16 -5.8499999 22
48.610001 35.169998 -5.8699999 23
53.900002 38.810001 -4.5100002 28
48.84 35.169998 -5.8899999 23
53.779999 38.540001 -4.4899998 27
49.18 35.240002 -5.9200001 23
49.459999 35.279999 -5.9400001 23
53.639999 38.09 -4.4699998 27
49.700001 35.290001 -5.96 23
53.849998 38.040001 -4.48 27
49.939999 35.279999 -5.98 35
53.57 37.669998 -4.4499998 26
50.16 35.27 -6 23
53.59 37.509998 -4.4400001 26
50.400002 35.27 -6.02 23
53.77 37.450001 -4.4499998 26
50.549999 35.209999 -6.02 23
49.900002 34.59 -4.1199999 22
50.709999 35.150002 -6.0300002 23
49.77 34.330002 -4.0999999 22
50.950001 35.139999 -6.0500002 23
51.16 35.119999 -6.0700002 24
46.77 31.950001 -3.8499999 19
51.349998 35.080002 -6.0799999 24
46.93 31.91 -3.8499999 19
51.57 35.060001 -6.0999999 23
49.18 33.279999 -4.0300002 32
49.150002 33.09 -4.02 32
52.080002 35.07 -6.1399999 24
48.75 32.669998 -3.98 31
52.060001 34.889999 -6.1300001 36
52.290001 34.860001 -6.1599998 36
47.639999 31.309999 -3.8699999 19
52.799999 34.700001 -6.1900001 24
47.459999 31.030001 -3.8499999 29
53.220001 34.799999 -6.23 24
47.240002 30.74 -3.8299999 28
41.73 27.16 -4.8800001 15
47.220001 30.57 -3.8199999 28
41.900002 27.120001 -4.8899999 14
47.220001 30.42 -3.8199999 28
42.040001 27.08 -4.9000001 15
47.759998 30.620001 -3.8499999 19
42.279999 27.110001 -4.9200001 15
47.889999 30.549999 -3.8599999 19
42.610001 27.190001 -4.9499998 15
51.869999 32.93 -4.1799998 22
42.880001 27.23 -4.98 15
52.16 32.939999 -4.1900001 22
43.200001 27.290001 -5.0100002 15
52.060001 32.720001 -4.1799998 22
43.419998 27.290001 -5.02 15
52.060001 32.560001 -4.1700001 22
43.66 27.309999 -5.0500002 15
52.150002 32.450001 -4.1700001 33
43.880001 27.299999 -5.0599999 15
52.299999 32.389999 -4.1799998 22
44.119999 27.32 -5.0799999 15
52.540001 32.369999 -4.1900001 22
44.369999 27.33 -5.1100001 15
44.66 27.370001 -5.1300001 24
52.540001 32.049999 -4.1799998 33
44.970001 27.43 -5.1599998 24
52.509998 31.860001 -4.1700001 22
45.290001 27.48 -5.1900001 16
52.470001 31.68 -4.1700001 21
52.560001 31.58 -4.1799998 32
50.380001 30.26 -5.7600002 20
50.23 30.02 -5.7399998 29
50.259998 29.889999 -5.73 29
50.360001 29.790001 -5.7399998 29
50.41 29.67 -5.7399998 29
56.049999 32.82 -4.4299998 24
50.470001 29.559999 -5.73 29
56.09 32.669998 -4.4200001 24
50.57 29.450001 -5.7399998 29
50.709999 29.389999 -5.75 29
50.720001 29.24 -5.7399998 29
54.619999 31.33 -4.29 22
50.689999 29.07 -5.73 29
54.32 31 -4.2600002 33
54.619999 31 -4.2800002 33
51 28.940001 -5.75 19
54.43 30.73 -4.2600002 22
50.639999 28.59 -5.6999998 28
54.25 30.469999 -4.2399998 21
50.580002 28.41 -5.6900001 28
54.139999 30.25 -4.23 32
50.57 28.25 -5.6799998 28
54.900002 30.51 -4.29 22
50.529999 28.09 -5.6799998 28
54.849998 30.32 -4.2800002 21
50.48 27.9 -5.6599998 27
55.25 30.379999 -4.3000002 33
50.529999 27.790001 -5.6599998 18
55.290001 30.24 -4.3000002 33
50.650002 27.709999 -5.6700001 18
55.060001 29.959999 -4.2800002 21
50.869999 27.68 -5.6900001 18
54.98 29.76 -4.27 32
51.139999 27.68 -5.71 18
55.099998 29.65 -4.27 21
51.439999 27.690001 -5.73 18
51.759998 27.709999 -5.7600002 19
52.09 27.74 -5.79 19
52.25 27.67 -5.8000002 19
52.389999 27.6 -5.8099999 19
52.48 27.5 -5.8200002 19
71.040001 37.009998 -5.4699998 35
52.619999 27.42 -5.8299999 19
71.68 37.150002 -5.5100002 35
52.75 27.34 -5.8299999 19
72.160004 37.189999 -5.54 35
52.880001 27.26 -5.8400002 19
53.07 27.200001 -5.8499999 19
53.25 27.15 -5.8699999 19
45.189999 21.27 -3.4100001 13
45.040001 21.08 -3.4000001 12
44.580002 20.860001 -4.8400002 12
45.009998 20.950001 -3.3900001 12
44.700001 20.799999 -4.8499999 19
45.02 20.83 -3.3900001 12
44.720001 20.690001 -4.8400002 19
45.139999 20.76 -3.4000001 12
45.049999 20.719999 -4.8699999 12
45.439999 20.77 -3.4200001 12
45.299999 20.700001 -4.8899999 12
45.77 20.799999 -3.4400001 13
45.610001 20.73 -4.9200001 13
46.099998 20.83 -3.46 13
46.470001 20.860001 -3.48 13
46.810001 20.889999 -3.5 20
46.830002 20.780001 -3.5 26
47.650002 21.139999 -5.1199999 21
46.75 20.620001 -3.49 13
47.639999 21.01 -5.1199999 21
46.869999 20.549999 -3.5 13
47.720001 20.92 -5.1300001 14
47.209999 20.559999 -3.52 13
47.57 20.719999 -5.1100001 20
47.57 20.59 -3.55 13
47.950001 20.629999 -3.5699999 13
51.369999 22.110001 -5.5100002 15
48.299999 20.66 -3.5899999 14
51.5 22.02 -5.52 16
48.689999 20.690001 -3.6199999 14
49.040001 20.84 -5.25 14
49.080002 20.73 -3.6500001 14
49.369999 20.85 -5.2800002 14
49.470001 20.76 -3.6700001 14
50.98 21.4 -5.4400001 15
49.860001 20.799999 -3.7 14
50.889999 21.23 -5.4299998 15
50.259998 20.83 -3.72 14
50.990002 21.129999 -5.4299998 15
50.689999 20.879999 -3.75 15
51.07 20.9 -3.78 15
51.5 20.940001 -3.8 15
51.91 20.969999 -3.8299999 15
52.360001 21.01 -3.8599999 15
45.880001 18.41 -4.8699999 18
52.790001 21.049999 -3.8900001 16
45.849998 18.280001 -4.8600001 18
53.240002 21.09 -3.9200001 16
45.919998 18.190001 -4.8600001 12
53.689999 21.129999 -3.95 16
45.77 18.01 -4.8400002 18
45.810001 17.91 -4.8400002 18
47.860001 18.59 -3.51 13
45.860001 17.809999 -4.8400002 12
48.09 18.549999 -3.53 13
45.849998 17.690001 -4.8400002 12
48.130001 18.450001 -3.54 13
45.84 17.57 -4.8400002 17
48.189999 18.34 -3.54 13
45.869999 17.459999 -4.8400002 17
48.310001 18.27 -3.54 13
45.889999 17.35 -4.8400002 17
48.360001 18.16 -3.54 13
45.880001 17.24 -4.8299999 17
48.34 18.030001 -3.54 13
45.919998 17.129999 -4.8299999 17
48.240002 17.870001 -3.53 13
45.869999 16.99 -4.8200002 59
48.23 17.75 -3.53 12
46.02 16.93 -4.8299999 17
48.240002 17.620001 -3.52 12
46.049999 16.82 -4.8299999 17
48.299999 17.530001 -3.53 12
46.389999 16.83 -4.8699999 11
48.360001 17.42 -3.53 12
48.349998 17.290001 -3.52 12
48.43 17.200001 -3.53 12
47.799999 16.98 -5 12
48.549999 17.120001 -3.53 12
48.009998 16.93 -5.02 18
48.709999 17.059999 -3.54 12
48 16.809999 -5.0100002 18
48.450001 16.84 -5.0599999 12
48.830002 16.85 -5.0900002 19
49.380001 16.91 -5.1500001 19
49.639999 16.879999 -5.1700001 19
50.040001 16.889999 -5.21 13
50.689999 16.99 -5.27 13
51.139999 17.01 -5.3099999 13
59.470001 15 -6.0599999 17
59.169998 14.78 -6.0300002 254
59.169998 14.64 -6.02 254
59.200001 14.5 -6.02 254
59.200001 14.37 -6.0300002 254
59.330002 14.25 -6.04 25
50.029999 10.85 -5.0700002 11
49.740002 10.66 -5.0300002 17
49.77 10.55 -5.0300002 17
51.509998 10.8 -5.21 18
51.610001 10.7 -5.2199998 18
65.760002 12.41 -6.6300001 19
66.080002 12.32 -6.6599998 19
66.059998 12.15 -6.6500001 19
66.089996 12.01 -6.6500001 19
60.279999 10.54 -6.0599999 16
59.810001 10.31 -6.0100002 16
67.019997 11.09 -6.73 20
67.360001 10.99 -6.7600002 20
67.379997 10.85 -6.7600002 20
67.720001 10.74 -6.79 20
111.48 -1.23 -7.7600002 51
111.33 -1.49 -7.75 204
92.220001 -3.71 -6.4299998 35
78.639999 -3.1600001 -7.8499999 25
92.040001 -3.9100001 -6.4200001 35
77.919998 -3.3099999 -7.77 25
92.120003 -4.1199999 -6.4299998 35
78.370003 -3.5 -7.8200002 25
28.549999 -1.34 -1.99 3
78.610001 -3.6900001 -7.8400002 25
28.459999 -1.4 -1.98 3
78.989998 -3.8900001 -7.8800001 26
28.450001 -1.46 -1.98 3
75.279999 -3.8699999 -7.5100002 255
27.99 -1.5 -1.95 4
75.25 -4.04 -7.5100002 23
27.84 -1.55 -1.9400001 3
27.85 -1.62 -1.9400001 3
27.780001 -1.6799999 -1.9400001 4
27.74 -1.74 -1.9299999 3
83.690002 -5.8099999 -8.3599997 29
83.830002 -6.0100002 -8.3800001 29
83.900002 -6.21 -8.3900003 29
87.169998 -6.8400002 -8.7299995 31
87.150002 -7.04 -8.7299995 31
87.519997 -7.27 -8.7700005 32
30.690001 -2.6099999 -2.1500001 9
87.949997 -7.5100002 -8.8100004 32
30.77 -2.6900001 -2.1500001 3
31.07 -2.79 -2.1800001 8
30.940001 -2.8399999 -2.1700001 8
91.900002 -9.5100002 -9.2200003 35
91.559998 -9.6800003 -9.1899996 35
28.440001 -3.2 -2 10
28.18 -3.23 -1.98 8
37.580002 -4.3099999 -3.77 6
37.240002 -4.3600001 -3.74 8
32.790001 -3.9100001 -3.29 4
32.889999 -4 -3.3 4
37.830002 -4.8600001 -3.8099999 6
37.560001 -4.9099998 -3.78 6
36.990002 -5 -3.73 8
36.970001 -5.0900002 -3.73 8
37.189999 -5.1999998 -3.75 8
36.759998 -5.4000001 -3.71 8
36.459999 -5.4400001 -3.6800001 8
28.709999 -4.3400002 -2.03 8
36.419998 -5.5100002 -3.6800001 5
28.690001 -4.4000001 -2.03 7
36.200001 -5.5599999 -3.6600001 5
36.529999 -5.6999998 -3.6900001 5
39.529999 -6.71 -2.8 10
39.43 -6.7800002 -2.8 6
32.040001 -5.7399998 -2.28 4
32.139999 -5.8299999 -2.29 6
28.07 -5.48 -2 5
28.190001 -5.5700002 -2.01 5
28.76 -6.5599999 -2.0699999 5
28.780001 -6.6300001 -2.0699999 5
30.440001 -7.1599998 -2.1900001 8
30.459999 -7.1599998 -3.1300001 6
30.469999 -7.2399998 -2.2 6
30.41 -7.2199998 -3.1300001 4
28.610001 -6.8600001 -2.0599999 9
28.68 -6.9499998 -2.0699999 9
29.200001 -7.0700002 -3.01 3
30.879999 -7.5500002 -2.23 4
29.18 -7.1399999 -3.01 3
30.75 -7.5999999 -2.22 8
37.720001 -9.3199997 -3.8900001 6
37.939999 -9.4700003 -3.9200001 6
29.559999 -7.4400001 -3.05 4
29.469999 -7.4899998 -3.04 6
29.469999 -7.5599999 -3.04 6
29.51 -7.6399999 -3.05 4
34.73 -9.0799999 -3.5999999 8
34.720001 -9.1599998 -3.5999999 8
34.779999 -9.3400002 -2.53 5
34.540001 -9.3599997 -2.51 8
32.970001 -9.0100002 -3.4300001 10
33.240002 -9.1700001 -3.46 7
35.860001 -9.9799995 -3.73 6
35.549999 -9.9799995 -3.7 8
36.27 -10.71 -2.6600001 6
35.27 -10.41 -3.6900001 8
36.490002 -10.86 -2.6700001 6
35.299999 -10.51 -3.6900001 8
39.349998 -12 -2.8900001 7
39.09 -12.02 -2.8699999 7
37.150002 -11.6 -3.9100001 6
36.950001 -11.63 -3.8900001 13
37.080002 -11.77 -3.9100001 10
37.09 -11.86 -3.9100001 23
37 -11.93 -3.9000001 13
37.139999 -12.06 -3.9200001 10
37.610001 -12.59 -2.79 10
37.48 -12.64 -2.78 10
25.610001 -8.6999998 -1.9 3
34.939999 -11.87 -3.7 12
25.57 -8.75 -1.9 3
34.84 -11.92 -3.7 6
37.009998 -12.76 -2.75 6
36.700001 -12.74 -2.73 10
28.540001 -9.9799995 -2.1300001 4
28.52 -10.04 -2.1300001 4
38.09 -13.42 -4.0500002 7
38.130001 -13.53 -4.0599999 7
36.41 -13.01 -2.72 9
36.32 -13.07 -2.72 9
73.330002 -27.139999 -5.52 27
73.199997 -27.27 -5.5100002 27
73.32 -27.51 -5.5300002 27
34.279999 -12.95 -3.6800001 6
34.540001 -13.13 -3.71 12
71.949997 -27.73 -5.4400001 26
72.029999 -27.940001 -5.4499998 26
34.950001 -13.65 -3.77 6
34.93 -13.73 -3.77 9
72.18 -28.57 -5.48 27
72.019997 -28.690001 -5.4699998 27
36.16 -14.49 -2.75 10
35.889999 -14.48 -2.73 10
36.049999 -14.64 -2.74 6
35.900002 -14.68 -2.73 6
35.759998 -14.71 -2.73 10
35.189999 -14.66 -2.6900001 9
35.380001 -14.83 -2.71 9
34.939999 -14.83 -2.6800001 19
35.080002 -14.99 -2.6900001 13
28.83 -12.62 -3.1700001 6
28.719999 -12.65 -3.1600001 4
28.65 -12.7 -3.1500001 4
28.620001 -12.76 -3.1500001 4
34.080002 -15.56 -2.6500001 9
34.139999 -15.68 -2.6500001 6
28.809999 -13.23 -3.1900001 6
28.790001 -13.3 -3.1900001 6
26.75 -12.51 -2.97 8
26.98 -12.69 -3 4
29.52 -14.04 -3.29 7
29.209999 -13.98 -3.26 9
29.719999 -14.39 -2.3399999 7
29.33 -14.2 -3.28 4
29.82 -14.52 -2.3499999 7
29.41 -14.32 -3.29 9
30.32 -14.84 -2.3900001 5
30.26 -14.9 -2.3900001 5
28.889999 -14.22 -3.24 9
28.860001 -14.29 -3.24 7
33.439999 -16.65 -2.6400001 6
29.33 -14.61 -3.3 4
33.139999 -16.6 -2.6199999 6
29.360001 -14.7 -3.3099999 7
28.43 -14.32 -2.25 9
29.1 -14.66 -3.28 7
28.51 -14.43 -2.26 7
28.42 -14.47 -2.26 14
28.860001 -14.7 -3.26 4
28.18 -14.43 -2.24 7
28.76 -14.73 -3.25 4
33.459999 -17.23 -2.6600001 6
33.380001 -17.280001 -2.6600001 6
26.940001 -14.1 -3.0699999 6
26.889999 -14.15 -3.0599999 6
23.43 -12.4 -1.88 6
23.24 -12.37 -1.86 6
27.780001 -14.86 -2.23 4
28.27 -15.12 -3.23 7
27.809999 -14.96 -2.24 4
28.49 -15.32 -3.26 4
23.459999 -12.68 -2.6900001 11
23.459999 -12.75 -2.6900001 6
33.419998 -18.27 -2.7 6
23.780001 -13 -2.73 10
33.139999 -18.209999 -2.6800001 6
23.620001 -12.98 -2.72 8
23.370001 -12.91 -2.6900001 6
25.280001 -14.11 -2.05 3
25.360001 -14.23 -2.0599999 6
34.869999 -19.780001 -2.8399999 11
34.619999 -19.74 -2.8199999 11
35.009998 -20.059999 -2.8599999 7
34.810001 -20.049999 -2.8499999 11
24.309999 -14.01 -2.8299999 7
34.450001 -19.950001 -2.8299999 7
24.200001 -14.02 -2.8199999 7
34.5 -20.08 -2.8399999 7
24.18 -14.08 -2.8199999 7
24.93 -14.59 -2.05 3
24.68 -14.52 -2.03 3
30.34 -17.85 -3.55 5
24.639999 -14.57 -2.03 5
30.51 -18.040001 -3.5799999 6
24.610001 -14.63 -2.03 3
30.219999 -17.959999 -3.55 5
24.559999 -14.67 -2.03 3
30.190001 -18.030001 -3.55 5
24.52 -14.72 -2.03 3
29.940001 -17.98 -3.53 8
29.879999 -18.030001 -3.52 20
29.860001 -18.110001 -2.48 8
29.93 -18.15 -3.53 5
29.68 -18.1 -2.47 5
29.879999 -18.309999 -2.49 8
29.48 -18.15 -3.5 5
29.1 -18.01 -2.4300001 5
29.25 -18.1 -3.47 8
29.16 -18.139999 -2.4400001 8
28.99 -18.120001 -2.4300001 5
29.120001 -18.209999 -3.47 5
29.219999 -18.35 -2.45 11
28.969999 -18.200001 -3.46 5
29.389999 -18.549999 -2.47 11
29.389999 -18.65 -2.47 11
29.33 -18.700001 -2.47 8
23.43 -14.94 -2.8099999 3
29.549999 -18.940001 -2.49 9
23.309999 -14.94 -2.79 7
23.25 -14.97 -2.8 7
23.49 -15.2 -1.99 3
23.370001 -15.2 -1.98 3
22.950001 -15.08 -1.95 5
22.889999 -15.04 -2.77 16
22.959999 -15.15 -1.96 3
22.68 -14.97 -2.75 3
22.85 -15.15 -1.95 3
22.6 -14.99 -2.74 3
22.91 -15.27 -1.96 5
22.690001 -15.19 -1.9400001 14
22.5 -15.14 -1.9299999 3
24.530001 -16.51 -2.99 4
22.66 -15.32 -1.95 3
24.43 -16.52 -2.98 6
22.700001 -15.42 -1.95 16
22.74 -15.52 -1.96 9
22.469999 -15.42 -1.9400001 7
22.389999 -15.36 -2.74 5
22.219999 -15.31 -1.92 5
22.530001 -15.53 -2.77 20
22.299999 -15.44 -1.9299999 7
22.209999 -15.53 -1.9299999 9
22.110001 -15.46 -2.73 3
22.15 -15.56 -1.9299999 3
22.110001 -15.54 -2.73 3
22.190001 -15.67 -2.75 7
23.129999 -16.559999 -2.8800001 16
23.030001 -16.57 -2.8699999 10
22.43 -16.530001 -2.8199999 3
22.379999 -16.57 -2.8199999 3
21.77 -16.190001 -1.9299999 3
22.25 -16.549999 -2.8099999 9
21.77 -16.26 -1.9400001 3
22.1 -16.82 -2.8099999 5
22.26 -17.030001 -2.8399999 4
22.42 -17.23 -2.8599999 4
18.82 -14.52 -2.4000001 5
18.83 -14.6 -2.4100001 5
18 -14.21 -1.63 6
21.889999 -17.290001 -2.8299999 4
17.889999 -14.2 -1.63 4
21.719999 -17.24 -2.8099999 3
17.92 -14.29 -1.63 12
17.610001 -14.11 -2.29 9
17.73 -14.27 -1.62 8
17.57 -14.14 -2.28 9
17.540001 -14.18 -1.61 6
17.360001 -14.1 -1.59 2
17.08 -13.87 -2.23 8
17.4 -14.19 -1.6 3
17.219999 -14.05 -2.25 7
17.389999 -14.25 -1.6 6
17.77 -14.56 -2.3299999 9
17.57 -14.46 -2.3 9
17.42 -14.41 -1.61 5
17.51 -14.48 -2.3 8
17.25 -14.34 -1.6 3
17.25 -14.4 -1.6 3
17.629999 -14.72 -2.3299999 13
17.209999 -14.43 -1.6 6
17.440001 -14.63 -2.3099999 8
17.35 -14.61 -1.62 6
17.370001 -14.63 -2.3 4
17.23 -14.58 -1.61 5
17.360001 -14.69 -2.3 5
17.219999 -14.64 -1.61 6
17.33 -14.73 -2.3 6
17.290001 -14.76 -1.62 8
17.32 -14.79 -2.3099999 9
17.290001 -14.83 -1.62 6
17.23 -14.78 -2.3 8
17.27 -14.88 -1.63 9
17.15 -14.78 -2.3 6
17.23 -14.91 -1.63 9
17.07 -14.78 -2.29 5
17.190001 -14.94 -1.63 6
17.040001 -14.81 -2.29 5
17.190001 -15.02 -1.63 6
17.040001 -14.88 -2.29 5
17.25 -15.14 -1.64 7
17.040001 -14.95 -2.3 4
16.940001 -14.93 -2.29 6
31.58 -27.969999 -3.02 9
16.9 -14.97 -2.29 6
31.610001 -28.110001 -3.03 9
16.85 -14.98 -2.29 5
16.790001 -15 -2.28 5
16.75 -15.03 -2.28 5
31.58 -28.469999 -3.04 14
16.629999 -15 -2.27 6
31.530001 -28.559999 -3.04 14
16.459999 -14.91 -2.25 5
16.469999 -14.98 -2.26 5
16.57 -15.14 -2.28 2
18.17 -16.68 -1.76 4
16.629999 -15.27 -2.29 9
18.17 -16.76 -1.77 8
17.459999 -16.1 -2.4100001 6
17.440001 -16.15 -2.4100001 6
17.42 -16.200001 -2.4200001 6
17.34 -16.200001 -2.4100001 7
17.290001 -16.24 -2.4100001 6
17.049999 -16.08 -2.3800001 6
17 -16.110001 -2.3800001 6
17.059999 -16.24 -2.3900001 6
18.209999 -17.49 -1.8099999 7
18.27 -17.620001 -1.8200001 15
16.33 -15.75 -2.3 12
16.23 -15.73 -2.3 7
16.24 -15.81 -2.3 9
27.83 -27.209999 -2.79 12
27.790001 -27.290001 -2.79 12
27.77 -27.4 -2.79 12
16.42 -16.34 -2.3499999 8
30.799999 30.68 -3.1800001 14
34.369999 34.23 -5 18
30.719999 30.459999 -3.1600001 21
34.5 34.200001 -5.0100002 18
34.650002 34.200001 -5.02 18
34.950001 34.349998 -5.0500002 18
30.15 29.49 -4.3499999 13
30.139999 29.35 -4.3400002 13
30.950001 30.01 -3.1500001 21
31.299999 30.35 -4.4899998 14
30.73 29.66 -3.1199999 21
31.48 30.389999 -4.5100002 14
30.5 29.309999 -3.0899999 20
30.360001 29.030001 -3.0699999 13
31.559999 30.190001 -4.5 21
30.610001 29.15 -3.0899999 20
31.610001 30.110001 -4.5 21
31.66 29.879999 -4.4899998 14
31.17 29.280001 -3.1300001 20
31.709999 29.790001 -4.4899998 14
31.32 29.290001 -3.1400001 20
31.790001 29.73 -4.4899998 21
31.190001 29.049999 -3.1199999 13
42.950001 39.990002 -6.0599999 25
43.07 39.919998 -6.0599999 25
42.970001 39.639999 -6.04 25
41.720001 38.32 -4.1500001 35
43.040001 39.540001 -6.0300002 25
41.869999 38.290001 -4.1500001 23
42.98 39.310001 -6.0100002 25
42.32 38.52 -4.1900001 24
43.049999 39.18 -6.0100002 24
43.150002 39.110001 -6.0100002 25
43.189999 38.959999 -6.0100002 24
43.049999 38.66 -4.2399998 36
43.119999 38.549999 -4.2399998 36
43.630001 39.009998 -6.04 24
43.099998 38.349998 -4.2199998 36
43.700001 38.900002 -6.04 24
43.27 38.330002 -4.23 24
43.779999 38.790001 -6.04 24
43.060001 37.98 -4.1999998 23
31.73 27.99 -4.3699999 19
31.709999 27.84 -3.0899999 12
31.790001 27.91 -4.3699999 19
31.85 27.85 -3.0999999 12
44.25 38.68 -6.0700002 24
45.040001 39.189999 -4.3699999 25
44.669998 38.860001 -6.1100001 25
44.700001 38.720001 -4.3299999 24
44.740002 38.75 -6.1100001 25
44.66 38.509998 -4.3200002 24
44.959999 38.77 -6.1300001 25
45.540001 39.080002 -4.3899999 37
45.099998 38.709999 -6.1399999 24
45.560001 38.93 -4.4000001 25
45.09 38.529999 -6.1300001 24
40.900002 34.799999 -5.5500002 20
41.02 34.73 -5.5599999 20
41.029999 34.580002 -5.5500002 30
38.799999 32.549999 -3.71 17
41.41 34.740002 -5.5900002 20
38.939999 32.529999 -3.72 17
41.689999 34.82 -5.6100001 20
39.450001 32.810001 -3.76 18
41.849998 34.799999 -5.6300001 20
39.849998 32.98 -3.79 18
42.009998 34.77 -5.6399999 20
39.59 32.619999 -3.76 18
42.220001 34.790001 -5.6500001 20
37.560001 30.809999 -3.5599999 24
39.330002 32.25 -5.2600002 26
37.66 30.75 -3.5699999 24
39.189999 31.99 -5.23 17
39.73 32.290001 -5.29 18
39.810001 32.200001 -5.29 18
44.02 34.950001 -5.8099999 21
40.380001 31.92 -3.78 17
44.119999 34.880001 -5.8099999 21
40.5 31.860001 -3.78 17
44.389999 34.919998 -5.8400002 21
38.040001 29.799999 -3.54 15
44.580002 34.919998 -5.8499999 21
37.919998 29.559999 -3.53 15
44.799999 34.919998 -5.8699999 32
38.23 29.68 -3.5599999 15
45 34.919998 -5.9000001 21
38.169998 29.48 -3.54 15
45.169998 34.889999 -5.9099998 21
38.060001 29.26 -3.53 15
45.349998 34.860001 -5.9200001 21
45.639999 34.93 -5.9499998 21
38.41 29.26 -3.55 15
45.91 34.970001 -5.9699998 22
38.439999 29.15 -3.54 15
45.889999 34.799999 -5.96 21
49.810001 37.599998 -4.5900002 25
46.150002 34.830002 -5.98 33
50.009998 37.57 -4.5999999 25
46.380001 34.84 -6 22
50.209999 37.549999 -4.6100001 25
46.529999 34.790001 -6.0100002 22
50.619999 37.669998 -4.6399999 25
46.68 34.73 -6.02 33
50.630001 37.5 -4.6300001 25
46.779999 34.650002 -6.0300002 33
50.91 37.529999 -4.6500001 25
47.029999 34.68 -6.0500002 33
50.919998 37.360001 -4.6399999 25
47.349998 34.740002 -6.0799999 33
50.869999 37.16 -4.6300001 25
47.48 34.68 -6.0799999 33
47.59 34.59 -6.0900002 22
56.599998 40.950001 -5.1300001 31
47.810001 34.59 -6.1100001 22
56.52 40.700001 -5.1199999 31
48.009998 34.57 -6.1199999 33
53.549999 38.369999 -4.8400002 27
48.150002 34.509998 -6.1300001 33
53.700001 38.299999 -4.8499999 27
48.259998 34.419998 -6.1399999 33
53.84 38.220001 -4.8499999 27
48.610001 34.509998 -6.1700001 22
55.580002 39.259998 -5 29
49.049999 34.650002 -6.2199998 22
55.619999 39.099998 -5 29
38.16 26.83 -4.8299999 13
55.459999 38.82 -4.98 28
38.34 26.84 -4.8499999 13
55.459999 38.619999 -4.98 28
38.48 26.799999 -4.8600001 13
38.709999 26.84 -4.8800001 13
56.630001 39.060001 -5.0599999 29
38.889999 26.83 -4.8899999 14
56.77 38.98 -5.0700002 29
39.139999 26.870001 -4.9200001 14
56.939999 38.900002 -5.0799999 29
39.419998 26.93 -4.9499998 14
39.630001 26.950001 -4.9699998 14
39.860001 26.969999 -4.9899998 14
49.52 33.34 -4.3899999 21
40.040001 26.969999 -5 14
49.189999 32.959999 -4.3600001 32
40.25 26.98 -5.02 14
40.459999 26.98 -5.04 14
40.639999 26.969999 -5.0500002 14
47 31.030001 -4.1399999 19
40.869999 26.99 -5.0700002 14
47.07 30.93 -4.1500001 19
41.130001 27.030001 -5.0999999 14
41.490002 27.129999 -5.1399999 15
47.900002 31.17 -5.9299998 20
48.330002 31.290001 -4.2399998 19
47.830002 30.969999 -5.9099998 19
48.52 31.26 -4.2600002 20
47.669998 30.709999 -5.8800001 29
48.790001 31.290001 -4.27 20
47.650002 30.549999 -5.8699999 29
52.290001 33.360001 -4.5700002 23
47.419998 30.25 -5.8400002 28
52.810001 33.529999 -4.6100001 23
47.41 30.1 -5.8299999 28
47.389999 29.940001 -5.8200002 28
47.310001 29.73 -5.8000002 28
53.299999 33.34 -4.6399999 23
47.220001 29.540001 -5.7800002 27
53.389999 33.220001 -4.6399999 23
47.259998 29.4 -5.77 27
52.889999 32.75 -4.5900002 23
47.169998 29.209999 -5.7600002 27
52.73 32.48 -4.5700002 22
47.16 29.049999 -5.75 27
55.560001 33.880001 -4.8000002 24
56 33.98 -4.8299999 25
46.43 28.18 -5.6300001 26
46.5 28.07 -5.6300001 26
53.09 31.889999 -4.5700002 22
46.509998 27.940001 -5.6300001 25
52.93 31.629999 -4.5500002 22
46.549999 27.82 -5.6300001 25
53.130001 31.59 -4.5599999 22
46.48 27.639999 -5.6100001 25
47.09 27.860001 -5.6799998 26
47.16 27.76 -5.6799998 26
47.220001 27.65 -5.6799998 25
47.349998 27.58 -5.6900001 26
47.490002 27.52 -5.6999998 26
63.259998 36.459999 -5.3899999 30
47.630001 27.459999 -5.71 17
63.459999 36.400002 -5.4000001 30
47.790001 27.41 -5.7199998 26
59.889999 34.169998 -5.0900002 27
47.959999 27.370001 -5.7399998 17
60.18 34.150002 -5.1100001 27
48.189999 27.35 -5.7600002 17
48.330002 27.290001 -5.77 17
48.549999 27.27 -5.7800002 17
48.549999 27.129999 -5.7800002 17
48.66 27.040001 -5.7800002 17
48.860001 27.01 -5.8000002 17
58.73 32.299999 -4.9499998 25
48.919998 26.9 -5.8000002 17
58.34 31.92 -4.9099998 24
49.040001 26.83 -5.8099999 17
67.690002 36.82 -5.6900001 33
49.209999 26.77 -5.8200002 17
68.040001 36.82 -5.7199998 33
49.360001 26.709999 -5.8299999 17
68.449997 36.84 -5.7399998 33
68.980003 36.93 -5.7800002 34
49.599998 26.559999 -5.8400002 17
69.360001 36.93 -5.8000002 34
49.619999 26.42 -5.8400002 17
69.589996 36.849998 -5.8200002 34
49.799999 26.370001 -5.8499999 17
69.82 36.779999 -5.8299999 34
49.82 26.24 -5.8499999 17
70.599998 36.990002 -5.9000001 34
49.990002 26.190001 -5.8699999 17
70.919998 36.950001 -5.9200001 35
50.040001 26.08 -5.8699999 17
71.18 36.889999 -5.9299998 35
50.119999 25.98 -5.8699999 17
71.629997 36.93 -5.96 35
50.259998 25.91 -5.8800001 17
50.360001 25.809999 -5.8899999 17
44.450001 22.66 -5.1900001 13
44.580002 22.6 -5.1999998 20
44.419998 22.389999 -5.1700001 20
44.75 22.309999 -5.1999998 13
46.110001 22.860001 -3.8099999 14
44.57 22.09 -5.1700001 13
46.389999 22.860001 -3.8199999 14
44.299999 21.83 -5.1399999 254
46.439999 22.76 -3.8299999 14
44.32 21.719999 -5.1300001 254
46.220001 22.530001 -3.8 14
44.32 21.6 -5.1300001 254
46.200001 22.379999 -3.8 14
44.34 21.48 -5.1199999 254
46.240002 22.280001 -3.8 14
44.380001 21.379999 -5.1199999 13
46.360001 22.209999 -3.8 14
46.619999 22.200001 -3.8199999 14
46.650002 22.09 -3.8199999 14
46.75 22 -3.8199999 14
44.540001 20.969999 -5.1199999 19
46.720001 21.870001 -3.8199999 14
44.5 20.83 -5.1100001 12
45.84 21.33 -3.75 20
44.529999 20.719999 -5.1100001 25
45.610001 21.1 -3.72 13
44.75 20.700001 -5.1300001 12
45.34 20.85 -3.7 13
45.139999 20.76 -5.1700001 13
45.740002 20.9 -3.73 13
44.84 20.26 -3.6500001 255
46.110001 20.83 -5.27 13
45.080002 20.24 -3.6600001 12
46.419998 20.84 -5.3000002 13
46.700001 20.84 -3.79 13
46.700001 20.84 -5.3200002 13
46.790001 20.76 -3.79 27
46.849998 20.790001 -5.3400002 20
46.779999 20.629999 -3.79 13
47.09 20.77 -5.3600001 20
46.900002 20.559999 -3.79 13
47.52 20.83 -5.4000001 20
47.259998 20.58 -3.8199999 13
47.619999 20.74 -5.4099998 14
47.610001 20.620001 -3.8399999 13
47.990002 20.65 -3.8699999 14
48.34 20.67 -3.8900001 14
48.73 20.709999 -3.9200001 14
49.099998 20.870001 -5.5500002 14
49.099998 20.73 -3.95 14
49.509998 20.91 -5.5999999 14
49.509998 20.780001 -3.98 14
49.889999 20.809999 -4.0100002 14
50.299999 20.84 -4.0300002 15
50.689999 20.879999 -4.0700002 15
51.689999 21.290001 -5.8299999 15
51.09 20.91 -4.0999999 15
51.720001 21.17 -5.8299999 15
51.549999 20.959999 -4.1300001 15
51.959999 20.99 -4.1599998 15
46 18.59 -5.1700001 12
52.389999 21.02 -4.1900001 16
45.91 18.42 -5.1599998 255
52.779999 21.049999 -4.2199998 16
45.860001 18.290001 -5.1500001 18
53.259998 21.1 -4.25 16
45.959999 18.209999 -5.1500001 12
46.060001 18.120001 -5.1599998 12
46.18 18.049999 -5.1700001 12
46.77 18.16 -3.72 12
46.040001 17.879999 -5.1500001 12
46.77 18.040001 -3.72 12
45.990002 17.75 -5.1399999 12
46.790001 17.93 -3.72 12
45.91 17.6 -5.1199999 12
46.759998 17.799999 -3.71 12
46.09 17.540001 -5.1399999 12
46.77 17.68 -3.71 12
45.959999 17.379999 -5.1199999 11
46.830002 17.59 -3.71 12
45.860001 17.23 -5.1100001 17
46.84 17.469999 -3.71 12
45.889999 17.120001 -5.1100001 17
46.84 17.360001 -3.71 12
45.919998 17.01 -5.1100001 17
47.84 17.6 -3.79 19
46.080002 16.950001 -5.1199999 11
47.880001 17.49 -3.79 12
46.119999 16.85 -5.1199999 11
47.880001 17.370001 -3.79 12
46.48 16.870001 -5.1599998 12
47.950001 17.27 -3.79 12
46.82 16.860001 -5.1900001 12
47.93 17.15 -3.78 12
47.290001 16.92 -5.2399998 12
47.950001 17.030001 -3.78 12
47.720001 16.950001 -5.2800002 12
47.950001 16.91 -3.78 12
47.990002 16.92 -5.3099999 18
48.02 16.82 -3.78 12
48.009998 16.809999 -5.3099999 18
48.59 16.889999 -3.8199999 12
48.470001 16.85 -5.3600001 12
48.860001 16.870001 -3.8399999 12
49.450001 17.07 -5.46 20
49.200001 16.85 -3.8699999 13
49.459999 16.940001 -5.46 20
49.48 16.83 -3.8800001 13
50.02 17.01 -5.5100002 13
49.830002 16.82 -3.9100001 13
50.330002 16.99 -5.54 13
50.209999 16.83 -3.9400001 13
50.860001 17.049999 -5.5999999 13
58.720001 16.93 -6.3899999 17
59.099998 16.9 -6.4200001 17
75.599998 19.790001 -5.8299999 28
75.220001 19.51 -5.8000002 255
75.25 19.34 -5.8000002 255
75.239998 19.16 -5.79 255
75.400002 19.01 -5.8000002 27
75.699997 18.91 -5.8200002 27
75.889999 18.780001 -5.8299999 28
46.150002 10.44 -4.9499998 15
46.18 10.33 -4.9499998 15
49.709999 10.65 -5.3200002 17
49.77 10.55 -5.3299999 17
51.57 10.81 -5.52 18
51.580002 10.69 -5.52 18
53.349998 10.94 -5.6999998 19
53.389999 10.82 -5.71 19
53.560001 10.73 -5.7199998 13
61.950001 11.83 -6.6100001 17
62.009998 11.7 -6.6100001 17
61.599998 11.48 -6.5599999 26
56.259998 10.35 -5.9899998 21
56.27 10.23 -5.9899998 21
56.27 10.1 -5.9899998 14
62.869999 10.99 -6.6900001 17
62.959999 10.85 -6.6900001 17
63.119999 10.74 -6.71 18
63.279999 10.62 -6.73 18
63.450001 10.5 -6.7399998 18
63.869999 10.42 -6.79 18
64.639999 9.9399996 -6.8600001 18
64.559998 9.79 -6.8499999 18
91.040001 -4.48 -6.8699999 34
73.129997 -3.5999999 -7.7199998 22
90.639999 -4.6599998 -6.8400002 34
72.889999 -3.75 -7.6900001 22
90.620003 -4.8699999 -6.8400002 34
73.279999 -3.9400001 -7.73 22
83.739998 -4.6900001 -6.3299999 29
73.610001 -4.1199999 -7.7800002 22
83.779999 -4.8800001 -6.3299999 29
84.059998 -5.0900002 -6.3600001 29
31.09 -1.95 -2.3499999 6
31.209999 -2.03 -2.3599999 4
31.08 -2.1500001 -2.3499999 8
74.599998 -5.1799998 -7.8899999 23
31.059999 -2.22 -2.3499999 4
74.75 -5.3499999 -7.9099998 23
74.879997 -5.54 -7.9200001 23
76.639999 -5.8400002 -8.1099997 24
76.620003 -6.0100002 -8.1099997 24
30.6 -2.47 -2.3099999 5
77.190002 -6.23 -8.1700001 25
30.73 -2.55 -2.3199999 3
78.099998 -6.4899998 -8.2700005 25
30.83 -2.6300001 -2.3299999 6
78.239998 -6.6799998 -8.29 26
30.98 -2.71 -2.3399999 4
28.1 -2.52 -2.1300001 6
28.24 -2.5999999 -2.1400001 5
81.330002 -7.4899998 -8.6199999 28
31.15 -2.9400001 -2.3599999 6
81.330002 -7.6799998 -8.6199999 28
31.1 -3.01 -2.3599999 6
81.730003 -7.9099998 -8.6599998 28
30.85 -3.05 -2.3399999 4
82.07 -8.1199999 -8.6999998 28
31.540001 -3.1900001 -2.3900001 6
85.050003 -8.6099997 -9.0200005 30
31.73 -3.28 -2.4100001 4
85.489998 -8.8500004 -9.0799999 31
27.42 -2.9000001 -2.0799999 8
27.51 -2.97 -2.0899999 6
86.169998 -9.5100002 -9.1599998 31
27.41 -3.0799999 -2.0799999 6
85.529999 -9.6199999 -9.0900002 31
27.440001 -3.1500001 -2.0899999 3
27.610001 -3.23 -2.0999999 8
85.790001 -10.05 -9.1300001 31
27.530001 -3.28 -2.0899999 6
85.75 -10.24 -9.1199999 31
27.719999 -3.3699999 -2.1099999 8
85.639999 -10.42 -9.1099997 31
36.880001 -4.9099998 -3.9300001 11
37.189999 -5.0300002 -3.96 9
37.189999 -5.1199999 -3.97 9
37 -5.1799998 -3.95 8
27.379999 -3.8900001 -2.0899999 6
36.889999 -5.2399998 -3.9400001 8
27.469999 -3.97 -2.0999999 8
27.360001 -4.0100002 -2.0899999 4
27.73 -4.1300001 -2.1199999 3
27.540001 -4.1700001 -2.1099999 9
27.459999 -4.2199998 -2.0999999 3
27.67 -4.3099999 -2.1199999 3
27.9 -4.3499999 -2.98 6
28.01 -4.4299998 -3 6
32 -5.4299998 -2.46 11
31.98 -5.5 -2.45 4
33.540001 -6.2399998 -3.6099999 5
33.75 -6.3499999 -3.6300001 10
35.220001 -6.8699999 -3.8 8
35.139999 -6.9400001 -3.79 13
28.25 -5.6500001 -2.1800001 5
35.25 -7.0500002 -3.8 11
28.18 -5.6999998 -2.1800001 5
33.43 -6.8400002 -3.6099999 7
33.610001 -6.9499998 -2.5999999 5
33.290001 -6.8899999 -3.5999999 4
33.48 -7 -2.5899999 5
45.860001 -9.6000004 -4.96 9
45.52 -9.6400003 -4.9299998 14
36.16 -8.25 -3.9200001 5
36.080002 -8.3100004 -3.9200001 5
30.49 -7.0999999 -3.3099999 4
28.940001 -6.8099999 -2.26 3
30.450001 -7.1599998 -3.3099999 8
28.700001 -6.8200002 -2.24 5
30.43 -7.23 -3.3099999 8
28.67 -6.8699999 -2.24 7
30.41 -7.29 -3.3099999 4
28.74 -6.96 -2.24 7
29.360001 -7.1100001 -3.2 3
28.67 -7.0100002 -2.24 7
29.4 -7.1900001 -3.21 4
29.469999 -7.2800002 -3.21 4
29.6 -7.3800001 -3.23 8
29.549999 -7.4400001 -3.23 4
32.189999 -8.1800003 -2.52 7
34.369999 -8.7399998 -3.76 8
32.27 -8.2799997 -2.53 9
34.549999 -8.8599997 -3.78 5
34.639999 -8.9700003 -3.79 8
33.18 -8.6700001 -2.5999999 17
35.150002 -9.1899996 -3.8499999 5
33.060001 -8.7200003 -2.5999999 12
35.290001 -9.3100004 -3.8699999 8
33.009998 -8.79 -2.5899999 10
33.259998 -8.9300003 -2.6099999 5
29.370001 -7.9499998 -2.3099999 8
29.309999 -8.0100002 -2.3099999 10
29.32 -8.0900002 -2.3099999 8
35.959999 -10.35 -3.97 6
35.939999 -10.44 -3.97 9
36.09 -10.57 -3.99 6
35.799999 -10.57 -3.96 9
35.68 -10.62 -3.95 9
35.540001 -10.66 -3.9400001 9
36.470001 -11.12 -2.9000001 9
36.549999 -11.24 -2.9100001 9
38.130001 -11.72 -4.23 10
36.400002 -11.28 -2.9000001 6
37.93 -11.75 -4.21 10
36.98 -11.55 -4.1100001 13
36.860001 -11.6 -4.0999999 13
30.67 -9.7299995 -2.45 4
36.900002 -11.71 -4.1100001 9
30.780001 -9.8400002 -2.46 4
36.869999 -11.79 -4.1100001 9
37.040001 -11.94 -4.1300001 13
37.09 -12.05 -4.1399999 10
37.16 -12.16 -4.1500001 10
37.380001 -12.33 -4.1799998 10
38.650002 -13.03 -3.1099999 7
35.860001 -12.09 -4.02 9
38.32 -13.02 -3.0799999 10
35.869999 -12.19 -4.02 6
38.610001 -13.21 -3.1099999 7
67.010002 -23.950001 -7.5599999 22
66.900002 -24.07 -7.5500002 22
35.98 -13.13 -4.0700002 6
35.939999 -13.21 -4.0700002 9
25.450001 -9.4799995 -2.0699999 4
35.91 -13.38 -4.0700002 9
25.280001 -9.4799995 -2.0599999 3
35.970001 -13.5 -4.0799999 9
35.830002 -13.53 -4.0700002 9
34.240002 -13.02 -2.79 9
35.68 -13.56 -4.0500002 6
34.200001 -13.09 -2.79 9
34.139999 -13.15 -2.79 6
34.470001 -13.28 -3.9200001 18
34.169998 -13.25 -3.8900001 15
26.290001 -10.33 -2.1500001 3
26.32 -10.42 -2.1600001 7
35.169998 -13.92 -4.02 13
35.189999 -14.02 -4.0300002 9
26.9 -10.78 -2.21 3
35.150002 -14.09 -4.0300002 9
26.75 -10.8 -2.2 3
35.029999 -14.14 -4.02 12
35.59 -14.55 -2.9300001 10
35.400002 -14.56 -2.9200001 16
34.16 -14.23 -3.9300001 24
34.889999 -14.63 -2.8900001 13
33.959999 -14.24 -3.9200001 12
34.98 -14.76 -2.9000001 13
34.119999 -15.31 -3.98 6
35.279999 -15.92 -2.96 10
34 -15.35 -3.97 9
35.299999 -16.030001 -2.96 10
34.720001 -15.76 -4.0599999 6
34.740002 -15.86 -4.0599999 6
29.34 -13.72 -2.47 9
29.190001 -13.73 -2.46 7
29.83 -14.44 -2.53 5
29.959999 -14.59 -2.55 5
29.51 -14.45 -2.51 7
29.73 -14.64 -2.54 7
29.48 -14.6 -3.51 5
29.389999 -14.64 -3.5 7
32.689999 -16.370001 -3.9000001 6
32.400002 -16.32 -3.8699999 6
28.030001 -14.19 -2.4000001 6
28.219999 -14.37 -2.4200001 7
28.17 -14.43 -2.4200001 9
28.030001 -14.44 -2.4100001 7
28.469999 -14.67 -3.4100001 7
28.299999 -14.65 -2.4400001 4
28.58 -14.8 -3.4300001 4
28.129999 -14.64 -2.4300001 7
25.030001 -13.03 -3.01 7
27.98 -14.65 -2.4200001 4
25.030001 -13.1 -3.01 5
28.139999 -14.81 -2.4300001 4
28.190001 -14.92 -2.4400001 4
27.9 -14.84 -2.4200001 7
27.65 -14.95 -2.4000001 7
23.799999 -12.87 -2.8800001 6
27.530001 -14.96 -2.4000001 4
23.700001 -12.88 -2.8699999 3
27.65 -15.11 -2.4100001 4
23.709999 -12.96 -2.8800001 3
28.01 -15.39 -2.45 4
23.700001 -13.03 -2.8800001 8
27.76 -15.33 -2.4300001 4
27.940001 -15.52 -2.45 4
31.84 -17.870001 -3.9000001 6
31.49 -17.77 -3.8599999 6
35.25 -20.1 -3.1099999 7
34.869999 -19.99 -3.0799999 7
34.950001 -20.139999 -3.0899999 7
23.709999 -13.73 -2.0999999 3
23.709999 -13.8 -2.0999999 3
23.65 -13.84 -2.0999999 3
23.76 -13.97 -2.1099999 5
29.08 -17.110001 -3.5999999 11
24.549999 -14.51 -2.1800001 3
28.99 -17.139999 -3.5899999 13
24.719999 -14.69 -2.2 6
29.77 -17.700001 -3.7 5
25.59 -15.28 -2.28 4
29.74 -17.77 -3.7 5
25.48 -15.3 -2.28 6
29.809999 -17.99 -2.6700001 8
29.57 -17.93 -2.6500001 5
29.58 -18.030001 -2.6600001 5
22.959999 -14 -2.8699999 5
29.85 -18.290001 -2.6900001 8
23.059999 -14.13 -2.8900001 8
29.6 -18.219999 -2.6700001 8
22.99 -14.16 -2.8800001 7
29.379999 -18.18 -2.6500001 8
29.23 -18.18 -2.6400001 11
29.65 -18.440001 -3.73 6
29.059999 -18.17 -2.6300001 5
29.639999 -18.530001 -3.73 9
29.75 -18.690001 -3.75 9
28.959999 -18.280001 -2.6300001 5
24.389999 -15.39 -3.0799999 4
29.110001 -18.469999 -2.6500001 11
24.27 -15.4 -3.0699999 4
29.1 -18.549999 -2.6500001 14
28.9 -18.52 -2.6300001 5
23.610001 -15.13 -2.99 7
28.860001 -18.59 -2.6400001 5
23.68 -15.25 -3.01 3
23.74 -15.36 -3.02 11
23.32 -15.17 -2.97 13
23.1 -15.1 -2.1199999 5
23.49 -15.35 -3 9
22.950001 -15.08 -2.1099999 3
23.07 -15.15 -2.95 7
23.030001 -15.2 -2.1199999 7
23.209999 -15.31 -2.97 15
22.959999 -15.23 -2.1099999 9
23.139999 -15.34 -2.96 7
22.629999 -15.08 -2.0899999 7
22.85 -15.22 -2.9300001 15
22.51 -15.07 -2.0799999 3
22.860001 -15.31 -2.9400001 15
22.43 -15.24 -2.0799999 3
22.440001 -15.32 -2.0899999 9
22.43 -15.39 -2.0899999 7
22.23 -15.32 -2.0799999 7
23.26 -16.34 -3.04 10
23.309999 -16.450001 -3.05 12
23.59 -16.74 -3.0899999 4
23.559999 -16.790001 -3.0899999 6
22.969999 -16.450001 -2.1700001 10
22.959999 -16.52 -2.1700001 8
23.370001 -16.809999 -3.0799999 8
23.27 -16.83 -3.0699999 6
18.639999 -13.54 -1.77 12
23.17 -16.83 -3.0599999 4
18.6 -13.57 -1.77 8
18.58 -13.63 -1.77 6
22.25 -16.32 -2.95 5
22.07 -16.26 -2.1099999 5
22.26 -16.4 -2.96 9
22.200001 -16.43 -2.1300001 5
22.700001 -16.879999 -2.1800001 6
22.67 -16.940001 -2.1800001 4
18.200001 -13.72 -2.4400001 4
18.290001 -13.86 -2.46 8
22.950001 -17.469999 -2.22 6
18.24 -13.88 -2.45 5
23.139999 -17.690001 -2.24 6
18.219999 -13.94 -2.45 9
18.32 -14.07 -2.47 2
18.290001 -14.11 -2.47 4
18.200001 -14.11 -2.46 5
21.83 -17.01 -2.1300001 9
18.1 -14.1 -2.46 5
21.809999 -17.07 -2.1300001 5
18.4 -14.4 -2.5 7
22.17 -17.43 -2.1700001 4
18.370001 -14.44 -2.5 9
22.17 -17.51 -2.1800001 4
18.280001 -14.44 -2.49 7
18.34 -14.56 -2.51 4
18.299999 -14.59 -2.5 4
18.190001 -14.57 -2.49 8
17.379999 -14.11 -1.73 3
17.24 -14.06 -1.71 6
17.26 -14.14 -1.72 2
17.299999 -14.24 -1.73 2
17.25 -14.27 -1.73 2
17.25 -14.33 -1.73 2
17.280001 -14.43 -1.74 6
17.549999 -14.79 -2.46 9
17.360001 -14.69 -2.4400001 9
17.309999 -14.71 -1.75 8
17.33 -14.74 -2.4400001 11
17.209999 -14.7 -1.74 6
17.290001 -14.76 -2.4300001 11
17.139999 -14.7 -1.74 6
17.120001 -14.68 -2.4200001 8
17.120001 -14.75 -1.74 8
17.09 -14.73 -2.4200001 9
17.120001 -14.82 -1.75 4
17.059999 -14.77 -2.4200001 8
17.1 -14.86 -1.75 6
17.040001 -14.82 -2.4200001 8
17.09 -14.93 -1.75 8
17.07 -14.91 -2.4300001 13
17.01 -14.93 -1.74 4
16.959999 -14.88 -2.4200001 6
17.17 -15.13 -1.76 7
16.92 -14.91 -2.4200001 6
17.049999 -15.1 -1.76 5
16.59 -14.69 -2.3800001 5
16.450001 -14.63 -2.3599999 5
16.15 -14.43 -1.67 7
16.42 -14.67 -2.3599999 6
16.07 -14.42 -1.67 6
16.33 -14.66 -2.3499999 6
16.309999 -14.71 -2.3599999 5
31.799999 -28.809999 -3.3199999 9
16.459999 -14.91 -2.3800001 5
31.540001 -28.700001 -3.3 9
16.43 -14.95 -2.3800001 5
16.58 -15.15 -2.4100001 9
16.549999 -15.19 -2.4100001 8
16.610001 -15.31 -2.4200001 7
18.209999 -16.940001 -1.92 10
18.23 -17.040001 -1.9299999 13
18.110001 -17.01 -1.92 8
17.09 -16.049999 -2.51 6
18.08 -17.049999 -1.92 8
16.9 -15.94 -2.49 5
18 -17.049999 -1.91 6
16.93 -16.040001 -2.5 6
16.93 -16.120001 -2.51 7
16.85 -16.110001 -2.5 3
18.450001 -17.709999 -1.97 3
17.049999 -16.370001 -2.53 7
18.32 -17.66 -1.96 5
16.99 -16.389999 -2.53 6
18.16 -17.59 -1.96 10
18.030001 -17.549999 -1.95 8
16.190001 -15.76 -2.4300001 12
16.6 -16.23 -1.79 2
16.18 -15.81 -2.4300001 5
16.469999 -16.17 -1.78 2
16.43 -16.200001 -1.78 2
30.389999 30.27 -3.3800001 21
30.41 30.15 -3.3699999 21
30.639999 30.25 -3.3900001 21
30.790001 30.25 -3.4000001 21
30.049999 29.530001 -4.5900002 20
30.120001 29.459999 -4.5900002 20
31.049999 30.24 -3.4200001 21
31.23 30.280001 -3.4300001 14
30.190001 29.01 -3.3 20
30.290001 28.969999 -3.3099999 20
40.619999 38.849998 -6.1199999 24
30.6 29.129999 -3.3299999 20
40.610001 38.669998 -6.1100001 24
30.65 29.059999 -3.3299999 20
31.02 29.280001 -3.3599999 20
36.5 34.439999 -5.4699998 19
31 29.129999 -3.3499999 20
36.599998 34.380001 -5.4699998 19
31.18 29.16 -3.3699999 20
31.73 29.540001 -3.4200001 14
31.690001 29.370001 -3.4100001 14
37.330002 34.610001 -5.5500002 19
31.73 29.280001 -3.4100001 13
37.41 34.509998 -5.5500002 19
31.959999 29.360001 -3.4200001 13
41.18 37.830002 -6.0900002 23
41.310001 37.779999 -6.0999999 23
37.91 34.509998 -5.5900002 19
38.07 34.5 -5.5999999 19
42.509998 38.349998 -4.52 24
42.66 38.310001 -4.52 23
38.549999 34.619999 -5.6399999 19
38.580002 34.490002 -5.6399999 19
38.900002 34.619999 -5.6799998 19
44.130001 39.099998 -4.6599998 25
39.029999 34.580002 -5.6900001 19
43.939999 38.75 -4.6300001 25
31.719999 27.98 -4.6100001 19
31.709999 27.84 -3.3299999 12
31.82 27.940001 -4.6199999 19
31.9 27.889999 -3.3499999 12
39.540001 34.57 -5.73 19
39.810001 34.630001 -5.7600002 20
39.939999 34.599998 -5.7600002 20
40.130001 34.599998 -5.7800002 30
44.919998 38.549999 -4.6799998 37
40.279999 34.57 -5.79 20
44.75 38.240002 -4.6500001 24
40.52 34.630001 -5.8099999 30
44.98 38.259998 -4.6700001 24
40.740002 34.66 -5.8299999 20
45.32 38.369999 -4.6900001 24
40.880001 34.610001 -5.8400002 30
45.68 38.5 -4.7199998 25
41.040001 34.599998 -5.8600001 30
41.27 34.630001 -5.8800001 30
41.360001 34.549999 -5.8800001 30
36.630001 30.459999 -3.77 15
41.57 34.57 -5.9000001 30
36.790001 30.450001 -3.78 23
41.779999 34.580002 -5.9200001 31
42.040001 34.639999 -5.9499998 20
39.290001 32.220001 -5.5500002 26
39.369999 32.139999 -5.5500002 26
37.360001 30.370001 -3.8099999 23
42.349998 34.419998 -5.96 30
37.779999 30.549999 -3.8399999 24
42.529999 34.400002 -5.9699998 31
37.919998 30.540001 -3.8499999 16
37.299999 30.030001 -5.23 23
38.150002 30.58 -3.8699999 24
37.310001 29.91 -5.2199998 23
36.060001 28.77 -3.6500001 21
43.029999 34.32 -6.0100002 20
36.189999 28.74 -3.6600001 21
43.290001 34.380001 -6.0300002 20
36.299999 28.700001 -3.6600001 14
43.419998 34.32 -6.04 31
43.52 34.25 -6.04 31
36.419998 28.530001 -3.6600001 14
43.759998 34.279999 -6.0700002 20
36.400002 28.379999 -3.6500001 14
43.830002 34.169998 -6.0700002 31
38.029999 29.51 -3.8099999 15
43.98 34.130001 -6.0799999 31
38.060001 29.4 -3.8099999 23
44.16 34.110001 -6.0900002 31
36.650002 28.17 -3.6600001 21
44.34 34.09 -6.0999999 21
36.57 27.99 -3.6400001 21
44.57 34.119999 -6.1300001 20
34.939999 26.610001 -4.79 12
35 26.540001 -4.79 12
59.48 44.889999 -5.9099998 36
35.150002 26.530001 -4.8099999 12
59.639999 44.799999 -5.9099998 36
35.330002 26.540001 -4.8299999 12
59.900002 44.779999 -5.9299998 36
35.509998 26.549999 -4.8499999 12
59.959999 44.619999 -5.9299998 36
35.740002 26.59 -4.8699999 13
50.650002 37.509998 -5 25
35.959999 26.639999 -4.8899999 13
50.490002 37.23 -4.9699998 25
36.209999 26.700001 -4.9200001 13
60.360001 44.279999 -5.9400001 36
36.380001 26.700001 -4.9299998 13
60.389999 44.099998 -5.9299998 36
36.549999 26.690001 -4.9499998 19
60.25 43.790001 -5.9099998 35
36.790001 26.74 -4.9699998 13
52.23 37.779999 -5.1100001 26
36.970001 26.75 -4.9899998 13
52.419998 37.740002 -5.1199999 26
37.07 26.700001 -4.9899998 20
52.689999 37.759998 -5.1399999 27
37.279999 26.719999 -5.0100002 13
37.459999 26.719999 -5.0300002 13
37.650002 26.73 -5.0500002 13
37.849998 26.74 -5.0700002 13
56.560001 39.77 -5.48 30
38.119999 26.809999 -5.0900002 13
56.650002 39.650002 -5.48 30
44.389999 31.07 -5.9200001 18
56.700001 39.490002 -5.48 30
44.139999 30.74 -5.8800001 27
44.02 30.51 -5.8600001 27
43.970001 30.33 -5.8400002 27
43.799999 30.07 -5.8099999 26
43.669998 29.84 -5.79 26
43.57 29.620001 -5.77 26
43.540001 29.469999 -5.75 25
43.549999 29.33 -5.75 25
59.84 40.099998 -5.7199998 32
43.490002 29.15 -5.73 25
60.139999 40.099998 -5.7399998 32
43.490002 29 -5.7199998 25
46.869999 31.1 -4.4699998 29
47.34 31.26 -4.5 19
43.450001 28.690001 -5.6999998 25
49.560001 32.57 -4.71 21
43.360001 28.5 -5.6799998 24
49.66 32.470001 -4.71 21
43.34 28.34 -5.6700001 24
48.810001 31.76 -4.6199999 20
43.32 28.190001 -5.6599998 24
48.73 31.549999 -4.6100001 20
43.369999 28.08 -5.6500001 24
48.68 31.360001 -4.5999999 30
43.330002 27.91 -5.6399999 24
48.619999 31.17 -4.5900002 20
43.290001 27.75 -5.6300001 24
48.889999 31.190001 -4.5999999 20
43.27 27.6 -5.6199999 24
43.209999 27.43 -5.5999999 23
43.02 27.17 -5.5700002 23
65.510002 41.169998 -6.1500001 35
43.119999 27.1 -5.5700002 15
65.650002 41.060001 -6.1500001 35
43.240002 27.049999 -5.5799999 15
57.889999 36.02 -5.4099998 27
43.43 27.02 -5.5999999 15
58.299999 36.099998 -5.4499998 28
43.66 27.030001 -5.6300001 15
58.57 36.080002 -5.4699998 28
43.900002 27.049999 -5.6500001 15
58.869999 36.080002 -5.4899998 28
44.130001 27.049999 -5.6700001 15
66.75 40.709999 -6.2199998 36
44.369999 27.059999 -5.6999998 16
66.330002 40.25 -6.1700001 35
44.599998 27.059999 -5.7199998 16
66.220001 39.98 -6.1500001 35
44.790001 27.040001 -5.73 16
44.939999 27 -5.75 16
45.009998 26.9 -5.75 16
56.279999 33.470001 -5.21 25
45.099998 26.82 -5.75 16
55.959999 33.099998 -5.1700001 24
45.23 26.76 -5.7600002 16
61.93 36.450001 -5.7199998 30
45.360001 26.700001 -5.77 16
62.119999 36.369999 -5.7199998 30
45.41 26.59 -5.77 16
62.290001 36.27 -5.73 30
45.540001 26.52 -5.77 16
62.84 36.41 -5.7800002 30
45.650002 26.450001 -5.7800002 16
63.23 36.450001 -5.8000002 30
45.709999 26.35 -5.7800002 16
63.459999 36.400002 -5.8200002 31
45.849998 26.299999 -5.79 16
64.050003 36.549999 -5.8600001 31
46.110001 26.309999 -5.8200002 16
54.990002 31.209999 -5.0300002 22
46.07 26.15 -5.8099999 16
55.18 31.15 -5.04 23
46.18 26.08 -5.8099999 16
54.91 30.84 -5.0100002 22
46.349998 26.040001 -5.8299999 16
54.889999 30.67 -5 22
46.290001 25.870001 -5.8099999 16
65.760002 36.549999 -5.9899998 32
46.450001 25.82 -5.8299999 16
66 36.48 -6.0100002 32
46.529999 25.719999 -5.8299999 16
66.25 36.43 -6.02 32
46.639999 25.65 -5.8400002 16
46.799999 25.6 -5.8499999 16
66.800003 36.34 -6.0599999 32
46.91 25.530001 -5.8600001 16
66.949997 36.23 -6.0599999 32
46.959999 25.42 -5.8499999 16
67.150002 36.139999 -6.0700002 32
47.09 25.35 -5.8600001 16
67.339996 36.049999 -6.0799999 32
47.18 25.26 -5.8699999 16
47.23 25.15 -5.8699999 16
67.900002 35.959999 -6.1199999 33
