# .PCD v0.7 - Point Cloud Data file format
VERSION 0.7
FIELDS x y z intensity
SIZE 4 4 4 4
TYPE F F F F
COUNT 1 1 1 1
WIDTH 1687
HEIGHT 1
VIEWPOINT 0 0 0 1 0 0 0
POINTS 1687
DATA ascii
37.990002 -13.38 -3.6900001 7
68.370003 -24.26 -8.8299999 24
67.800003 -24.23 -8.7600002 23
66.360001 -23.879999 -8.5799999 22
71.449997 -25.889999 -6.9499998 26
66.279999 -24.030001 -8.5699997 34
71.610001 -26.129999 -6.9699998 26
34.41 -12.73 -3.3499999 6
34.380001 -12.81 -3.3499999 6
66.370003 -24.73 -8.6099997 23
34.310001 -12.87 -3.3499999 6
66.230003 -24.85 -8.6000004 23
34.439999 -13.01 -3.3599999 12
35.279999 -13.41 -3.45 13
35.919998 -13.66 -4.6700001 10
35.25 -13.49 -3.45 9
35.84 -13.72 -4.6599998 13
35 -13.49 -3.4300001 9
35.549999 -13.7 -4.6300001 6
35.16 -13.64 -3.45 6
35.5 -13.77 -4.6300001 6
35.07 -13.7 -3.4400001 9
34.990002 -13.67 -4.5599999 13
35 -13.76 -3.4400001 6
34.93 -13.73 -4.5599999 9
34.880001 -13.81 -4.5599999 6
34.59 -13.96 -3.4100001 9
34.540001 -14.03 -3.4100001 9
34.599998 -14.05 -4.54 16
34.75 -14.21 -3.4300001 9
34.279999 -14.02 -4.5 12
34.099998 -14.03 -4.48 12
33.810001 -14 -4.4499998 6
33.380001 -13.91 -3.3 12
33.959999 -14.15 -4.4699998 12
33.630001 -14.1 -3.3299999 24
33.970001 -14.24 -4.4699998 6
33.669998 -14.2 -3.3299999 15
33.860001 -14.28 -4.46 6
34.529999 -14.66 -4.5500002 23
34.48 -14.73 -4.5500002 9
35.389999 -15.21 -3.52 10
34.25 -14.73 -4.5300002 6
35.509998 -15.36 -3.53 10
35.610001 -15.49 -3.54 10
36.299999 -15.8 -4.8099999 11
35.02 -15.33 -3.49 20
36.34 -15.91 -4.8200002 7
35 -15.42 -3.49 10
28.809999 -12.85 -2.8800001 7
30.57 -13.63 -4.0599999 5
28.93 -12.98 -2.8900001 7
30.709999 -13.78 -4.0900002 5
28.76 -12.98 -2.8800001 7
28.5 -12.94 -2.8599999 4
30.809999 -13.99 -4.1100001 8
28.82 -13.16 -2.8900001 7
30.700001 -14.02 -4.0999999 8
29.059999 -13.35 -2.9100001 7
28.83 -13.32 -2.8900001 7
27.370001 -12.65 -3.6600001 4
28.85 -13.41 -2.9000001 4
27.559999 -12.81 -3.6800001 13
27.620001 -12.91 -3.7 11
27.790001 -13.07 -3.72 8
27.91 -13.2 -3.74 13
29.360001 -13.97 -2.96 7
29.27 -14.01 -2.96 7
29.450001 -14.18 -2.98 7
28.5 -13.72 -3.8299999 7
32.459999 -15.71 -3.29 6
28.58 -13.84 -3.8499999 12
32.5 -15.83 -3.29 6
28.889999 -14.31 -2.9400001 7
29.120001 -14.5 -2.97 7
28.799999 -14.42 -2.9400001 7
28.74 -14.47 -2.9300001 7
28.48 -14.59 -2.9200001 7
24.940001 -12.77 -3.4000001 5
28.6 -14.73 -2.9300001 4
25.049999 -12.9 -3.4200001 7
24.709999 -12.86 -3.3699999 9
24.74 -12.95 -3.3800001 11
24.799999 -13.05 -3.3900001 7
24.85 -13.15 -3.4000001 7
27.030001 -14.39 -2.79 4
24.59 -13.09 -3.3699999 11
27.01 -14.45 -2.79 4
23.450001 -12.68 -2.4300001 12
23.43 -12.74 -2.4300001 12
24.02 -13.06 -3.3099999 9
23.59 -12.89 -2.45 8
23.940001 -13.09 -3.3 7
23.440001 -12.88 -2.4300001 6
23.74 -13.04 -3.28 7
23.940001 -13.22 -3.3099999 14
23.65 -13.2 -2.46 10
23.610001 -13.18 -3.27 8
23.67 -13.29 -2.47 8
23.549999 -13.22 -3.27 8
23.790001 -13.42 -2.49 10
23.43 -13.22 -3.26 3
23.950001 -13.58 -2.51 11
23.440001 -13.29 -3.26 10
24.27 -13.84 -2.54 5
23.450001 -13.37 -3.27 7
24.129999 -13.83 -2.53 5
23.42 -13.42 -3.27 7
24.280001 -13.99 -2.55 7
23.370001 -13.47 -3.27 7
24.6 -14.32 -2.5899999 5
24.42 -14.29 -2.5699999 3
23.440001 -13.72 -3.28 10
23.440001 -13.79 -3.29 3
30.23 -17.870001 -3.1900001 9
23.34 -13.8 -3.28 3
30.1 -17.889999 -3.1800001 6
23.15 -13.76 -3.26 8
29.969999 -17.9 -3.1700001 5
29.809999 -17.9 -3.1600001 8
23 -13.81 -3.25 8
31.6 -19.07 -3.3499999 6
22.809999 -13.76 -3.22 3
31.75 -19.26 -3.3800001 6
31.610001 -19.27 -3.3599999 6
23.75 -14.48 -3.3699999 5
23.530001 -14.42 -3.3399999 15
23.43 -14.42 -3.3299999 3
23.629999 -14.62 -2.52 3
23.559999 -14.65 -2.52 3
21.690001 -13.49 -3.0899999 6
23.639999 -14.78 -2.53 9
21.6 -13.5 -3.0799999 3
23.530001 -14.78 -2.52 3
21.74 -13.66 -3.1099999 13
21.58 -13.63 -3.0899999 6
23.360001 -14.9 -2.52 9
23.209999 -14.87 -2.5 5
26.98 -17.290001 -3.8800001 7
23.190001 -14.94 -2.5 5
26.98 -17.370001 -3.8800001 7
23.17 -14.99 -2.5 7
22.940001 -14.92 -2.48 7
22.84 -14.92 -2.48 5
24.719999 -16.24 -3.5699999 4
22.690001 -14.98 -2.47 3
24.73 -16.32 -3.5799999 4
22.83 -15.14 -2.49 16
29.1 -19.389999 -4.23 9
24.83 -16.629999 -2.71 6
28.84 -19.309999 -4.1999998 6
24.59 -16.549999 -2.6900001 6
24.459999 -16.540001 -2.6800001 4
22.52 -15.3 -2.47 5
22.469999 -15.34 -2.47 3
22.35 -15.33 -2.46 5
22.42 -15.45 -2.47 11
22.16 -15.42 -2.45 3
22.290001 -15.59 -2.47 15
24.549999 -17.58 -3.6500001 7
24.34 -17.51 -3.6199999 4
22.76 -16.459999 -3.3900001 4
22.65 -16.450001 -3.3800001 4
22.280001 -16.41 -2.51 3
19.540001 -14.4 -2.9300001 6
22.190001 -16.43 -2.5 5
19.559999 -14.48 -2.9400001 3
18.959999 -14.1 -2.1400001 7
18.889999 -14.11 -2.1400001 10
22.209999 -16.83 -2.53 10
22.17 -16.870001 -2.53 16
22.969999 -17.559999 -3.49 6
22.93 -17.620001 -3.49 4
22.690001 -17.51 -3.46 4
19.129999 -14.83 -2.9200001 6
18.98 -14.79 -2.9000001 7
19.120001 -14.97 -2.9300001 6
18.65 -14.8 -2.8699999 6
18.559999 -14.8 -2.8599999 7
18.4 -14.74 -2.8399999 7
17.07 -13.74 -1.98 7
18.17 -14.62 -2.8099999 7
17.129999 -13.85 -1.99 6
18.24 -14.74 -2.8299999 4
17.07 -13.86 -1.99 8
18.219999 -14.8 -2.8299999 7
17.59 -14.35 -2.05 4
18.110001 -14.77 -2.8199999 7
17.66 -14.47 -2.0599999 8
17.879999 -14.65 -2.79 7
17.09 -14.07 -2 7
17.799999 -14.65 -2.78 12
17.059999 -14.11 -2 9
17.969999 -14.86 -2.8099999 13
17.450001 -14.5 -2.05 11
17.92 -14.89 -2.8099999 11
17.530001 -14.63 -2.0699999 8
17.969999 -15 -2.8199999 10
17.5 -14.67 -2.0699999 8
17.98 -15.07 -2.8299999 13
17.459999 -14.71 -2.0599999 4
17.459999 -14.84 -2.0699999 9
17.42 -14.88 -2.0699999 8
17.370001 -14.89 -2.0699999 7
17.35 -14.95 -2.0699999 12
17.040001 -14.69 -2.71 2
17.209999 -14.9 -2.0599999 8
17.07 -14.78 -2.72 6
17.110001 -14.88 -2.05 8
17.08 -14.92 -2.05 8
17.049999 -14.89 -2.73 5
17.1 -15 -2.05 11
16.93 -14.86 -2.71 9
16.9 -14.89 -2.71 8
16.84 -14.92 -2.71 5
16.84 -14.98 -2.71 11
16.360001 -14.62 -1.98 10
16.450001 -14.76 -2 6
16.91 -15.18 -2.74 35
16.23 -14.63 -1.97 9
16.790001 -15.14 -2.72 12
16.059999 -14.55 -1.96 7
18.209999 -16.49 -2.96 5
16.02 -14.57 -1.96 5
18.139999 -16.5 -2.95 6
18.1 -16.540001 -2.95 4
17.450001 -16.16 -2.1500001 6
17.43 -16.219999 -2.1500001 6
29.82 -27.74 -4.9000001 9
17.379999 -16.25 -2.1500001 7
29.709999 -27.77 -4.9000001 9
17.32 -16.27 -2.1400001 7
15.57 -14.62 -2.5699999 8
17.33 -16.34 -2.1500001 7
15.63 -14.74 -2.5799999 15
17.440001 -16.52 -2.1700001 6
15.6 -14.78 -2.5799999 15
17.51 -16.66 -2.1800001 8
15.63 -14.87 -2.5999999 11
17.51 -16.74 -2.1900001 8
15.77 -15.07 -2.6199999 12
16.49 -15.84 -2.0599999 10
15.68 -15.05 -2.6099999 5
16.450001 -15.86 -2.0599999 11
16.43 -15.92 -2.0599999 13
16.41 -15.97 -2.0699999 10
16.299999 -15.94 -2.0599999 10
16.66 -16.360001 -2.8099999 6
16.34 -16.120001 -2.0699999 8
16.629999 -16.41 -2.8099999 6
16.27 -16.120001 -2.0699999 4
16.24 -16.16 -2.0699999 11
34.209999 33.77 -5.7199998 27
39.169998 38.490002 -4.8800001 23
34.330002 33.73 -5.7199998 27
39.16 38.299999 -4.8699999 23
34.509998 33.75 -5.7399998 27
34.599998 33.700001 -5.7399998 27
34.700001 33.650002 -5.75 27
30.76 29.690001 -3.8 21
34.860001 33.639999 -5.7600002 28
30.9 29.690001 -3.8099999 14
34.959999 33.59 -5.7600002 27
30.969999 29.620001 -3.8099999 21
35.099998 33.57 -5.7800002 27
31.030001 29.549999 -3.8099999 21
35.209999 33.52 -5.7800002 27
35.310001 33.470001 -5.79 27
35.470001 33.470001 -5.8000002 18
35.66 33.5 -5.8200002 18
27.83 26.02 -4.52 11
27.9 25.98 -4.5300002 11
45.080002 41.790001 -5.46 28
28.040001 26 -4.54 11
45.279999 41.779999 -5.4699998 29
28.129999 25.950001 -4.54 11
45.389999 41.689999 -5.4699998 28
28.26 25.959999 -4.5599999 11
45.639999 41.740002 -5.4899998 28
28.41 25.98 -4.5700002 11
42.549999 38.73 -5.1100001 24
28.59 26.030001 -4.5900002 11
42.799999 38.790001 -5.1300001 25
28.799999 26.110001 -4.6199999 11
42.830002 38.650002 -5.1199999 25
28.940001 26.110001 -4.6300001 11
42.950001 38.57 -5.1199999 24
29.09 26.129999 -4.6399999 11
29.190001 26.1 -4.6500001 11
46.32 41.220001 -5.5 28
29.309999 26.09 -4.6599998 11
46.369999 41.080002 -5.5 28
29.49 26.129999 -4.6799998 11
31.74 28 -3.76 13
29.639999 26.139999 -4.6900001 17
31.74 27.860001 -3.75 13
29.77 26.139999 -4.6999998 17
29.91 26.15 -4.7199998 17
30.049999 26.139999 -4.73 17
44.380001 38.450001 -5.21 25
30.200001 26.16 -4.75 11
44.450001 38.330002 -5.21 25
30.33 26.16 -4.7600002 11
44.610001 38.279999 -5.2199998 24
30.52 26.200001 -4.7800002 11
44.790001 38.27 -5.2199998 25
30.709999 26.24 -4.79 11
44.919998 38.209999 -5.2199998 25
35.5 30.200001 -5.5300002 15
35.599998 30.139999 -5.54 23
35.68 30.07 -5.54 23
35.790001 30.030001 -5.5500002 23
35.84 29.940001 -5.54 23
45.200001 37.59 -5.21 24
35.889999 29.85 -5.54 23
45.200001 37.41 -5.1999998 24
35.98 29.780001 -5.54 23
45.34 37.360001 -5.1999998 24
35.799999 29.5 -5.5100002 23
45.779999 37.540001 -5.2399998 24
35.59 29.190001 -5.46 22
35.43 28.92 -5.4299998 22
45.970001 37.360001 -5.25 24
35.380001 28.76 -5.4099998 22
46.099998 37.279999 -5.25 24
35.43 28.66 -5.4099998 22
33.119999 26.67 -5.0500002 19
33.189999 26.610001 -5.0500002 255
35.369999 28.219999 -5.3699999 21
37.07 29.440001 -4.1900001 23
35.360001 28.08 -5.3499999 21
37.439999 29.6 -4.2199998 15
35.290001 27.9 -5.3299999 21
37.52 29.52 -4.23 15
35.259998 27.74 -5.3200002 21
35.130001 27.52 -5.29 20
37.779999 29.459999 -4.2399998 15
35.200001 27.440001 -5.29 20
37.82 29.35 -4.2399998 15
35.119999 27.26 -5.27 20
45.57 35.200001 -5.0999999 22
35.189999 27.18 -5.27 20
45.540001 35.009998 -5.0799999 22
35.200001 27.059999 -5.2600002 20
50.799999 38.880001 -5.6599998 27
35.259998 26.99 -5.2600002 20
51.099998 38.919998 -5.6900001 27
35.27 26.860001 -5.25 19
51.139999 38.779999 -5.6799998 27
35.23 26.709999 -5.2399998 19
51.310001 38.73 -5.6900001 27
35.290001 26.639999 -5.2399998 19
51.529999 38.700001 -5.71 28
35.459999 26.639999 -5.2600002 20
51.610001 38.59 -5.71 27
35.48 26.530001 -5.25 19
51.580002 38.380001 -5.6900001 27
35.549999 26.450001 -5.25 19
47.48 35.16 -5.23 23
35.68 26.43 -5.2600002 19
47.84 35.27 -5.2600002 23
35.84 26.43 -5.2800002 19
47.869999 35.130001 -5.2600002 23
36.029999 26.440001 -5.3000002 20
48.119999 35.150002 -5.2800002 23
36.209999 26.450001 -5.3099999 19
48.389999 35.169998 -5.3000002 23
36.389999 26.450001 -5.3299999 20
48.619999 35.169998 -5.3099999 23
36.549999 26.440001 -5.3499999 20
48.93 35.23 -5.3299999 23
36.75 26.469999 -5.3600001 20
49.18 35.240002 -5.3499999 24
36.91 26.450001 -5.3800001 13
49.5 35.310001 -5.3800001 24
37.009998 26.4 -5.3800001 13
49.790001 35.349998 -5.4000001 24
37.16 26.379999 -5.4000001 13
50.049999 35.360001 -5.4200001 24
37.25 26.32 -5.4000001 13
50.209999 35.310001 -5.4299998 24
37.32 26.25 -5.4099998 13
50.490002 35.34 -5.4499998 24
37.41 26.190001 -5.4099998 13
50.799999 35.380001 -5.4699998 24
37.560001 26.16 -5.4200001 13
50.959999 35.32 -5.48 24
37.599998 26.07 -5.4200001 13
51.209999 35.330002 -5.5 24
37.75 26.040001 -5.4299998 13
51.369999 35.259998 -5.5100002 24
37.810001 25.959999 -5.4299998 13
51.59 35.240002 -5.52 25
37.889999 25.889999 -5.4400001 13
51.93 35.310001 -5.5500002 24
38.029999 25.860001 -5.4499998 13
47.66 32.25 -5.0900002 20
38.119999 25.799999 -5.4499998 13
47.75 32.16 -5.0900002 21
38.25 25.76 -5.46 13
52.5 35.18 -5.5900002 25
38.330002 25.690001 -5.4699998 13
52.650002 35.099998 -5.5900002 25
38.459999 25.639999 -5.48 13
52.939999 35.130001 -5.6199999 25
38.48 25.540001 -5.4699998 13
38.599998 25.49 -5.48 13
53.18 34.950001 -5.6300001 25
38.639999 25.4 -5.48 13
53.41 34.919998 -5.6399999 25
38.709999 25.309999 -5.48 13
53.509998 34.82 -5.6399999 25
38.869999 25.290001 -5.4899998 13
53.77 34.810001 -5.6599998 25
38.919998 25.200001 -5.4899998 13
54 34.790001 -5.6700001 25
39 25.129999 -5.4899998 13
54.259998 34.790001 -5.6900001 25
39.119999 25.08 -5.5 13
42.669998 27.219999 -4.4699998 15
39.220001 25.02 -5.5100002 13
42.84 27.200001 -4.48 15
39.279999 24.940001 -5.5100002 13
42.990002 27.15 -4.4899998 15
39.419998 24.9 -5.52 13
43.27 27.190001 -4.5100002 15
39.5 24.83 -5.52 13
43.549999 27.24 -4.5300002 16
39.619999 24.780001 -5.5300002 13
43.860001 27.290001 -4.5599999 16
39.650002 24.67 -5.5300002 13
44.150002 27.34 -4.5799999 16
39.75 24.610001 -5.5300002 13
44.43 27.370001 -4.6100001 16
39.860001 24.559999 -5.54 13
44.669998 27.379999 -4.6199999 16
39.900002 24.459999 -5.54 13
44.939999 27.41 -4.6500001 16
40 24.4 -5.54 13
45.119999 27.379999 -4.6599998 16
40.130001 24.35 -5.5500002 13
45.41 27.41 -4.6799998 17
40.169998 24.26 -5.5500002 13
45.639999 27.42 -4.6999998 16
40.400002 24.27 -5.5799999 13
45.970001 27.469999 -4.73 17
40.369999 24.129999 -5.5700002 13
51.610001 30.690001 -5.3000002 21
40.419998 24.040001 -5.5700002 13
51.509998 30.469999 -5.2800002 21
40.57 24 -5.5799999 13
51.48 30.299999 -5.27 21
40.599998 23.9 -5.5700002 13
51.330002 30.059999 -5.2399998 31
40.700001 23.84 -5.5799999 13
51.43 29.959999 -5.25 31
40.810001 23.77 -5.5799999 13
51.540001 29.870001 -5.25 31
40.860001 23.68 -5.5799999 13
51.419998 29.639999 -5.23 31
41.009998 23.639999 -5.5999999 13
51.389999 29.469999 -5.2199998 31
40.970001 23.5 -5.5799999 13
51.98 29.66 -5.2800002 20
41 23.4 -5.5799999 13
51.98 29.5 -5.27 20
41.099998 23.33 -5.5900002 13
51.84 29.27 -5.25 31
41.23 23.280001 -5.5999999 13
51.860001 29.129999 -5.2399998 31
41.48 23.299999 -5.6199999 13
51.830002 28.959999 -5.23 30
41.639999 23.27 -5.6399999 13
51.810001 28.799999 -5.23 30
41.779999 23.219999 -5.6500001 13
51.91 28.700001 -5.23 30
51.889999 28.540001 -5.2199998 30
51.869999 28.379999 -5.21 30
51.84 28.209999 -5.1999998 30
51.860001 28.07 -5.1999998 29
51.849998 27.91 -5.1900001 29
51.959999 27.82 -5.1999998 19
52.240002 27.82 -5.2199998 20
52.540001 27.82 -5.2399998 20
52.82 27.82 -5.2600002 20
53.130001 27.84 -5.2800002 20
53.43 27.83 -5.3000002 20
34.41 17.93 -4.5799999 8
53.639999 27.799999 -5.3200002 20
34.290001 17.77 -4.5599999 8
53.810001 27.74 -5.3299999 20
34.009998 17.530001 -4.5100002 8
53.970001 27.66 -5.3400002 20
34.220001 17.540001 -4.54 12
54.060001 27.559999 -5.3400002 20
34.18 17.42 -4.5300002 12
54.200001 27.469999 -5.3499999 20
34.98 17.73 -4.6300001 12
54.380001 27.41 -5.3600001 20
35.049999 17.67 -4.6300001 12
54.459999 27.290001 -5.3600001 20
35.09 17.59 -4.6300001 12
54.619999 27.23 -5.3699999 20
35.259998 17.58 -4.6500001 8
54.880001 27.200001 -5.3899999 20
35.200001 17.450001 -4.6399999 12
54.93 27.07 -5.3899999 20
55.060001 26.99 -5.4000001 20
55.169998 26.889999 -5.4000001 20
55.360001 26.82 -5.4200001 20
55.599998 26.639999 -5.4299998 20
35.259998 16.9 -4.6100001 8
55.689999 26.52 -5.4299998 20
35.330002 16.83 -4.6199999 8
55.779999 26.42 -5.4299998 20
56.200001 26.309999 -5.46 20
56.27 26.190001 -5.46 20
56.41 26.09 -5.46 20
56.509998 25.98 -5.4699998 20
35.619999 16.379999 -4.6199999 8
56.580002 25.860001 -5.4699998 20
36.009998 16.459999 -4.6700001 8
36.279999 16.49 -4.6999998 8
36.349998 16.42 -4.6999998 8
56.959999 25.57 -5.4899998 20
36.619999 16.440001 -4.7399998 8
57.110001 25.49 -5.5 20
57.139999 25.360001 -5.5 20
57.349998 25.290001 -5.5100002 20
57.43 25.17 -5.5100002 20
57.209999 24.91 -5.4899998 20
57.41 24.85 -5.5 20
57.889999 24.91 -5.54 20
58.259998 24.450001 -5.5500002 21
58.43 24.370001 -5.5599999 20
46.869999 18.33 -5.9299998 13
47.02 18.26 -5.9400001 13
47.16 18.07 -5.9499998 13
47.200001 17.969999 -5.9499998 13
47.32 17.889999 -5.96 13
48.470001 16.6 -6.0300002 13
61.830002 21.02 -5.73 20
48.509998 16.5 -6.0300002 12
61.849998 20.879999 -5.7199998 20
48.630001 16.42 -6.04 13
62.25 20.860001 -5.7600002 21
48.77 16.35 -6.0599999 13
48.84 16.25 -6.0599999 13
49.139999 15.73 -6.0700002 13
49.220001 15.64 -6.0700002 13
60.27 15.49 -5.4400001 18
60 15.28 -5.4099998 17
39.040001 9.9399996 -4.73 7
60.119999 15.16 -5.4200001 17
39.07 9.8599997 -4.73 7
39.16 9.79 -4.7399998 11
40.77 10.09 -4.9299998 8
59.740002 14.64 -5.3800001 17
40.77 9.9899998 -4.9299998 8
60.130001 14.59 -5.4099998 17
40.830002 9.9099998 -4.9400001 12
59.959999 14.41 -5.3899999 17
42.540001 10.22 -5.1399999 8
60 14.27 -5.3899999 17
42.610001 10.14 -5.1399999 13
59.950001 14.12 -5.3800001 17
42.599998 10.04 -5.1399999 8
60.130001 14.02 -5.4000001 255
44.32 10.34 -5.3499999 9
60.099998 13.88 -5.3899999 43
44.380001 10.25 -5.3499999 14
60.689999 13.87 -5.4400001 17
51.580002 11.55 -6.21 12
51.48 11.4 -6.1900001 12
51.580002 11.3 -6.1999998 12
51.639999 11.19 -6.1999998 12
51.650002 11.07 -6.1999998 12
51.549999 10.81 -4.5999999 12
51.869999 10.88 -6.2199998 12
51.549999 10.69 -4.5900002 12
52 10.78 -6.23 12
46.48 9.5299997 -5.5700002 10
46.880001 9.5 -5.6100001 10
48.189999 9.6599998 -5.77 11
48.669998 9.6400003 -5.8200002 11
52.490002 10.27 -6.2800002 12
52.41 10.13 -6.2600002 12
52.720001 10.07 -6.3000002 13
52.889999 9.9799995 -6.3200002 13
52.900002 9.8599997 -6.3200002 13
53.139999 9.7799997 -6.3400002 13
53.709999 9.7600002 -6.4000001 13
53.799999 9.6499996 -6.4099998 13
68.940002 12.2 -6.0999999 21
53.939999 9.5500002 -6.4200001 13
69.07 12.07 -6.1100001 21
53.970001 9.4300003 -6.4200001 13
69.129997 11.92 -6.1199999 21
54.16 9.3299999 -6.4400001 13
53.950001 9.1800003 -6.4200001 13
54.099998 9.0799999 -6.4299998 13
70.019997 11.43 -6.1900001 22
70.160004 11.3 -6.1999998 22
70.43 11.17 -6.2199998 22
70.5 11.01 -6.2199998 22
71.050003 10.93 -6.27 22
71.900002 10.41 -6.3299999 23
72.260002 10.29 -6.3600001 23
79.269997 2.3199999 -6.8899999 26
79.290001 2.1400001 -6.8899999 26
79.5 1.98 -6.9000001 26
79.940002 1.8 -6.9400001 27
80.080002 1.63 -6.9499998 27
80.620003 0.74000001 -7 27
81.050003 0.55000001 -7.04 27
81.669998 -0.17 -7.0900002 28
81.830002 -0.34999999 -7.0999999 28
60.900002 -1.63 -7.1100001 15
60.869999 -1.76 -7.1100001 15
83.519997 -2.79 -7.2399998 29
82.839996 -2.95 -7.1799998 29
83.440002 -3.3599999 -7.23 29
83.620003 -3.55 -7.25 29
87.010002 -4.8699999 -7.54 32
87.529999 -5.0900002 -7.5900002 32
88.800003 -5.7800002 -7.6999998 33
88.529999 -5.9499998 -7.6799998 33
89.290001 -6.1999998 -7.75 33
62.150002 -4.3099999 -7.27 16
92.18 -6.5999999 -8 36
61.59 -4.4099998 -7.1999998 16
92.730003 -6.8600001 -8.0500002 36
61.52 -4.5500002 -7.1900001 16
61.389999 -4.6799998 -7.1799998 16
62.130001 -4.8800001 -7.27 24
62.23 -5.02 -7.2800002 25
62.470001 -5.1900001 -7.3099999 25
55.5 -5.1100001 -6.4899998 13
55.720001 -5.2600002 -6.52 13
55.5 -5.3699999 -6.5 20
63.84 -6.3200002 -7.4699998 26
64.120003 -6.4899998 -7.5100002 17
64.059998 -6.6300001 -7.5 26
64.629997 -6.8299999 -7.5700002 18
64.82 -7.0100002 -7.5999999 27
65.279999 -7.1999998 -7.6500001 18
66.019997 -7.4299998 -7.7399998 28
66.089996 -7.5900002 -7.75 28
69.57 -8.3100004 -8.1599998 21
69.309998 -8.4300003 -8.1300001 21
69.290001 -8.5900002 -8.1300001 21
69.709999 -8.8000002 -8.1899996 21
36.439999 -4.6799998 -3.1700001 8
70.75 -9.0900002 -8.3100004 21
36.779999 -4.8099999 -3.2 5
70.900002 -9.2799997 -8.3299999 22
71.32 -9.4899998 -8.3800001 22
71.949997 -9.7399998 -8.46 22
27.5 -3.78 -2.3900001 4
27.389999 -3.8299999 -2.3800001 8
73.349998 -10.26 -8.6199999 23
27.190001 -3.8599999 -2.3699999 11
72.900002 -10.36 -8.5699997 23
27.030001 -3.9000001 -2.3499999 11
37.099998 -5.3600001 -4.3600001 9
37.07 -5.4400001 -4.3600001 9
36.470001 -5.52 -4.29 11
36.34 -5.5799999 -4.2800002 8
27.610001 -4.3000002 -2.4100001 3
36.43 -5.6799998 -4.29 11
27.58 -4.3600001 -2.4100001 3
36.490002 -5.8600001 -4.3000002 8
36.360001 -5.9200001 -4.2800002 5
36.240002 -5.98 -4.27 5
27.610001 -4.6199999 -2.4100001 5
27.799999 -4.7199998 -2.4300001 6
27.969999 -4.8099999 -2.45 8
27.879999 -4.8600001 -2.4400001 8
27.73 -4.9000001 -2.4300001 6
35.98 -6.4400001 -4.25 5
35.669998 -6.4699998 -4.2199998 5
34.439999 -6.48 -3.02 5
34.09 -6.5 -2.99 5
33.34 -6.8200002 -3.95 5
33.43 -6.9200001 -3.97 7
34.52 -7.2199998 -4.0999999 10
34.619999 -7.3299999 -4.1100001 8
34.32 -7.3400002 -4.0799999 10
35.540001 -7.6900001 -3.1300001 5
34.279999 -7.4200001 -4.0799999 8
35.580002 -7.7800002 -3.1400001 5
34.02 -7.4400001 -4.0500002 5
36.029999 -8.1300001 -3.1800001 5
36.040001 -8.2200003 -3.1800001 5
36.419998 -8.3900003 -3.22 6
36.360001 -8.46 -3.22 6
30.34 -7.0599999 -3.6199999 4
30.389999 -7.1500001 -3.6199999 6
29.059999 -6.9000001 -2.5699999 3
30.370001 -7.21 -3.6199999 6
29.07 -6.9699998 -2.5699999 3
30.040001 -7.1999998 -3.5799999 6
29.049999 -7.04 -2.5699999 7
29.940001 -7.25 -3.5799999 4
29.09 -7.1199999 -2.5799999 3
29.93 -7.3200002 -3.5799999 4
38.599998 -9.6300001 -4.6199999 10
38.529999 -9.6999998 -4.6100001 10
34.41 -8.75 -3.05 8
34.490002 -8.8500004 -3.0599999 5
38.459999 -9.8699999 -4.6100001 10
29.5 -7.6399999 -2.6199999 8
38.720001 -10.03 -4.6399999 7
29.469999 -7.6999998 -2.6199999 10
38.84 -10.15 -4.6599998 10
29.459999 -7.77 -2.6199999 6
39.66 -10.56 -4.7600002 7
32.619999 -8.7600002 -2.9100001 20
39.279999 -10.55 -4.7199998 11
32.470001 -8.8000002 -2.8900001 7
39.240002 -10.63 -4.7199998 11
39.389999 -10.87 -4.7399998 7
39.23 -10.92 -4.73 7
34.59 -9.71 -3.0899999 5
39.290001 -11.03 -4.7399998 11
34.549999 -9.7799997 -3.0899999 8
39.490002 -11.17 -4.7600002 11
34.540001 -9.8599997 -3.0899999 5
39.150002 -11.18 -4.7199998 7
35.459999 -10.38 -3.1700001 6
35.610001 -10.51 -3.1900001 6
38.970001 -11.6 -4.7199998 11
38.970001 -11.7 -4.7199998 11
39.029999 -11.81 -4.73 7
35.98 -11.06 -3.23 6
38.919998 -11.96 -4.7199998 11
36.279999 -11.25 -3.26 6
38.860001 -12.04 -4.7199998 11
39.029999 -12.19 -3.51 7
56.34 -17.6 -6.8499999 15
39.119999 -12.31 -3.52 7
56.389999 -17.75 -6.8600001 15
38.990002 -12.37 -3.51 7
38.799999 -12.41 -3.5 7
35.82 -11.55 -3.23 6
35.959999 -11.68 -3.25 6
36.580002 -11.88 -4.46 10
36.32 -11.88 -3.28 9
36.439999 -11.92 -4.4499998 6
36.540001 -12.05 -3.3 6
36.549999 -12.14 -3.3099999 6
25.08 -8.3299999 -3.0599999 3
25.190001 -8.4300003 -3.0799999 4
69.120003 -23.48 -8.46 24
69.269997 -23.700001 -8.4899998 24
35.919998 -12.47 -4.4000001 9
34.369999 -12.02 -3.1199999 5
36.09 -12.63 -4.4299998 6
34.400002 -12.11 -3.1300001 6
36.209999 -12.75 -4.4499998 6
34.470001 -12.23 -3.1400001 6
36.209999 -12.85 -4.4499998 6
34.549999 -12.34 -3.1500001 6
34.459999 -12.4 -3.1400001 6
25.08 -9.2200003 -2.29 4
25.030001 -9.2600002 -2.29 3
25.530001 -9.5799999 -2.3399999 5
35.23 -13.22 -4.3600001 9
25.76 -9.7299995 -2.3599999 3
35.029999 -13.23 -4.3299999 9
35.59 -13.53 -4.4099998 9
34.509998 -13.21 -3.1700001 9
35.66 -13.65 -4.4200001 6
34.669998 -13.36 -3.1800001 9
35.650002 -13.74 -4.4200001 6
34.700001 -13.46 -3.1900001 9
35.66 -13.83 -4.4299998 13
34.689999 -13.55 -3.1900001 9
34.790001 -13.68 -4.3299999 12
34.799999 -13.77 -4.3299999 12
34.919998 -13.91 -3.22 9
34.630001 -13.8 -4.3099999 6
34.959999 -14.01 -3.23 9
34.549999 -13.85 -4.3099999 9
34.68 -13.99 -3.2 9
34.59 -14.05 -3.2 6
34.48 -14.09 -3.1900001 9
34.560001 -14.22 -3.2 6
34.77 -14.4 -3.22 13
34.080002 -14.2 -4.27 12
34.369999 -14.41 -4.3099999 12
33.869999 -14.28 -4.25 12
33.779999 -14.34 -4.25 6
34.939999 -14.93 -3.25 10
35.040001 -15.06 -3.27 6
37.5 -16.120001 -4.7199998 7
35.52 -15.36 -3.3099999 6
37.389999 -16.17 -4.71 7
35.540001 -15.46 -3.3199999 6
37.470001 -16.299999 -4.7199998 7
35.669998 -15.62 -3.3299999 7
35.93 -15.82 -3.3599999 7
30.82 -13.66 -3.9000001 7
30.67 -13.67 -3.8800001 7
30.83 -13.83 -3.9000001 8
30.58 -13.8 -3.8800001 7
28.43 -12.98 -3.6099999 4
29.360001 -13.49 -2.76 4
28.190001 -12.95 -3.5899999 4
29.43 -13.6 -2.77 4
27.83 -12.86 -3.54 13
27.57 -12.82 -3.51 6
28.84 -13.48 -2.72 9
28.030001 -13.11 -3.5799999 4
28.950001 -13.62 -2.74 9
27.98 -13.16 -3.5699999 4
27.940001 -13.22 -3.5699999 4
28.02 -13.33 -3.5899999 4
28.07 -13.44 -3.5999999 4
28.870001 -13.98 -3.71 7
28.68 -13.97 -3.6800001 7
25.540001 -12.57 -3.29 13
25.299999 -12.53 -3.26 5
25.32 -12.75 -3.27 9
25.26 -12.79 -3.27 7
25.23 -12.85 -3.27 9
26.280001 -13.46 -2.52 10
26.24 -13.51 -2.52 12
25.15 -12.95 -3.27 7
28.450001 -14.73 -2.74 4
25.1 -13 -3.26 3
28.559999 -14.87 -2.75 4
24.969999 -13 -3.25 5
28.4 -14.87 -2.74 4
25.040001 -13.11 -3.26 5
23.68 -12.47 -2.28 6
23.610001 -12.49 -2.28 5
23.610001 -12.56 -2.28 6
23.59 -12.62 -2.28 6
23.879999 -12.98 -3.1400001 10
23.92 -13.08 -3.1400001 7
23.74 -13.05 -3.1199999 3
23.68 -13.08 -3.1199999 7
23.610001 -13.11 -3.1099999 7
23.530001 -13.14 -3.1099999 7
23.690001 -13.29 -3.1300001 7
23.530001 -13.27 -3.1099999 3
23.85 -13.53 -2.3399999 9
23.48 -13.31 -3.1099999 3
23.98 -13.68 -2.3499999 9
23.549999 -13.43 -3.1300001 7
23.58 -13.51 -3.1300001 7
23.93 -13.79 -3.1800001 3
23.809999 -13.79 -3.1700001 7
29.530001 -17.190001 -3.9400001 8
24.26 -14.2 -2.4000001 7
29.280001 -17.139999 -3.9100001 8
24.08 -14.17 -2.3800001 7
24.1 -14.25 -2.3900001 7
24.139999 -14.35 -2.3900001 9
23.629999 -14.04 -3.1700001 11
29.950001 -17.889999 -2.97 8
23.620001 -14.11 -3.1700001 11
29.75 -17.870001 -2.96 8
22.98 -13.87 -3.0899999 7
29.73 -18.030001 -2.96 8
22.889999 -13.88 -3.0899999 8
29.67 -18.09 -2.96 8
29 -17.77 -3.9200001 8
29.129999 -17.93 -3.9400001 5
34.419998 -21.299999 -3.45 8
29.139999 -18.040001 -3.95 8
34.43 -21.41 -3.45 8
29.32 -18.33 -2.9400001 5
29.34 -18.43 -2.95 8
29.469999 -18.6 -2.97 5
23.280001 -14.92 -2.3499999 5
23.290001 -15 -2.3599999 5
23.02 -14.9 -2.3299999 5
23.35 -15.11 -3.2 5
22.950001 -14.92 -2.3299999 3
23.139999 -15.05 -3.1800001 3
22.9 -14.96 -2.3299999 5
23.139999 -15.12 -3.1800001 3
22.9 -15.04 -2.3299999 5
23.33 -15.33 -3.22 7
23.27 -15.36 -3.21 11
22.6 -15.2 -2.3099999 9
22.469999 -15.19 -2.3099999 5
22.58 -15.34 -2.3199999 7
22.610001 -15.51 -2.3299999 7
22.639999 -15.6 -2.3399999 7
22.610001 -15.66 -2.3399999 15
22.41 -15.6 -2.3199999 9
22.639999 -15.84 -2.3499999 17
23.110001 -16.16 -3.24 18
22.530001 -15.83 -2.3399999 5
22.99 -16.15 -3.23 20
22.620001 -15.97 -2.3499999 15
22.530001 -15.98 -2.3499999 5
22.43 -15.99 -3.1700001 7
22.540001 -16.139999 -3.1900001 5
22.469999 -16.17 -3.1900001 21
22.450001 -16.23 -3.1900001 17
22.309999 -16.200001 -3.1700001 9
22.219999 -16.370001 -3.1700001 7
22.24 -16.459999 -3.1800001 3
22.280001 -16.959999 -3.22 4
22.139999 -16.93 -2.3699999 6
22.190001 -16.969999 -3.21 4
21.93 -16.85 -2.3499999 5
17.809999 -13.75 -1.91 6
18.48 -14.27 -2.6800001 7
17.74 -13.76 -1.9 7
18.290001 -14.19 -2.6600001 4
18.309999 -14.26 -2.6700001 5
18.58 -14.54 -2.71 10
17.34 -13.64 -1.87 11
18.440001 -14.5 -2.7 15
17.280001 -13.65 -1.87 5
18.280001 -14.44 -2.6800001 12
17.139999 -13.6 -1.86 3
18.450001 -14.64 -2.71 5
18.389999 -14.66 -2.7 11
18.620001 -14.92 -2.74 10
17.219999 -13.86 -1.87 11
18.540001 -14.92 -2.73 7
17.280001 -13.96 -1.88 3
18.370001 -14.85 -2.71 10
17.1 -13.95 -1.87 5
17.82 -14.53 -2.6400001 7
17.17 -14.07 -1.88 5
17.74 -14.53 -2.6300001 6
17.139999 -14.11 -1.88 6
17.84 -14.69 -2.6500001 8
17.809999 -14.73 -2.6500001 7
17.639999 -14.65 -1.9400001 8
17.9 -14.87 -2.6700001 7
17.65 -14.73 -1.95 7
17.76 -14.83 -2.6600001 7
17.58 -14.74 -1.9400001 5
17.73 -14.86 -2.6500001 11
17.6 -14.82 -1.95 11
17.620001 -14.84 -2.6400001 21
17.639999 -14.93 -1.96 8
17.639999 -14.93 -2.6500001 12
17.5 -14.88 -1.95 7
23.780001 -20.309999 -2.6500001 5
23.77 -20.379999 -2.6500001 5
17.370001 -14.97 -1.9400001 4
17.27 -14.95 -1.9299999 9
17.129999 -14.89 -1.92 8
17.01 -14.78 -2.5899999 8
17.049999 -14.89 -1.92 5
16.99 -14.84 -2.5899999 9
16.040001 -14.08 -1.8099999 7
17 -14.91 -2.5999999 8
16.09 -14.18 -1.8200001 4
16.049999 -14.21 -1.8099999 6
16.02 -14.24 -1.8099999 7
16.200001 -14.47 -1.84 10
16.879999 -15.08 -2.5899999 12
16.219999 -14.56 -1.84 6
16.76 -15.04 -2.5799999 5
16.02 -14.45 -1.8200001 21
16.65 -15.02 -2.5699999 2
15.86 -14.37 -1.8099999 6
16.690001 -15.11 -2.5799999 8
16.690001 -15.18 -2.5899999 13
16.67 -15.23 -2.5899999 12
16.530001 -15.17 -2.5699999 9
18 -16.6 -2.0699999 4
17.92 -16.6 -2.0699999 6
15.78 -14.62 -2.47 15
17.860001 -16.620001 -2.0599999 6
15.7 -14.61 -2.46 15
17.83 -16.66 -2.0599999 3
15.52 -14.5 -2.4400001 5
17.709999 -16.629999 -2.0599999 8
15.54 -14.59 -2.4400001 6
15.55 -14.66 -2.45 12
29.5 -28.08 -3.45 9
29.66 -28.35 -3.47 9
16.41 -15.83 -1.9299999 13
16.42 -15.91 -1.9299999 13
16.469999 -16.030001 -1.9400001 10
16.68 -16.23 -2.6600001 9
16.360001 -15.99 -1.9299999 8
16.65 -16.27 -2.6700001 7
16.35 -16.049999 -1.9400001 11
16.620001 -16.32 -2.6700001 9
16.459999 -16.24 -1.95 13
16.74 -16.51 -2.6900001 6
16.68 -16.530001 -2.6900001 15
30.129999 30.01 -3.54 14
30.25 29.99 -3.54 21
30.33 29.93 -3.54 21
30.32 29.93 -4.8200002 14
30.459999 29.93 -3.55 21
30.52 30 -4.8400002 14
30.65 29.98 -3.5599999 21
34.970001 34.209999 -5.5300002 18
30.610001 29.809999 -3.55 21
35.099998 34.18 -5.54 28
30.09 29.18 -3.48 13
35.290001 34.220001 -5.5599999 28
30.059999 29.01 -3.47 20
35.48 34.240002 -5.5799999 28
35.580002 34.189999 -5.5799999 28
30.200001 28.889999 -3.47 26
35.720001 34.16 -5.5900002 28
30.190001 28.75 -3.46 26
35.799999 34.09 -5.5900002 28
35.93 34.07 -5.5999999 28
30.370001 28.66 -3.47 20
36.099998 34.060001 -5.6100001 28
30.67 28.809999 -3.5 20
36.25 34.049999 -5.6300001 28
30.83 28.83 -3.51 20
36.34 33.98 -5.6300001 28
30.98 28.85 -3.52 20
36.529999 34.009998 -5.6500001 28
36.599998 33.919998 -5.6399999 28
36.810001 33.959999 -5.6599998 28
41.799999 38.389999 -4.7199998 24
36.900002 33.889999 -5.6700001 28
42.290001 38.68 -4.75 24
37.07 33.900002 -5.6799998 28
42.450001 38.639999 -4.7600002 24
37.290001 33.939999 -5.6999998 19
37.459999 33.950001 -5.71 19
37.509998 33.849998 -5.71 28
37.639999 33.799999 -5.7199998 28
45.450001 40.630001 -5.0599999 27
37.799999 33.799999 -5.73 28
45.610001 40.59 -5.0700002 27
37.919998 33.740002 -5.73 28
31.870001 28.24 -4.8099999 13
31.799999 28.049999 -3.52 13
31.709999 27.969999 -4.7800002 19
31.74 27.870001 -3.5 12
38.439999 33.75 -5.7800002 19
38.509998 33.669998 -5.7800002 28
44.349998 38.580002 -4.8800001 25
38.799999 33.759998 -5.8099999 19
44.529999 38.580002 -4.8899999 25
30.299999 26.24 -4.5300002 11
44.66 38.509998 -4.8899999 25
30.360001 26.18 -4.5300002 11
44.790001 38.439999 -4.9000001 24
30.51 26.190001 -4.54 11
44.91 38.369999 -4.9000001 24
30.68 26.209999 -4.5599999 11
44.27 37.66 -4.8200002 24
30.76 26.17 -4.5599999 11
44.25 37.459999 -4.8099999 24
30.950001 26.200001 -4.5799999 11
31.129999 26.24 -4.5999999 11
44.369999 37.23 -4.8099999 23
31.33 26.290001 -4.6199999 11
44.59 37.25 -4.8200002 23
31.52 26.33 -4.6399999 11
44.650002 37.130001 -4.8099999 23
31.67 26.34 -4.6500001 12
44.669998 36.970001 -4.8000002 23
31.85 26.360001 -4.6700001 12
45.200001 37.240002 -4.8499999 24
32.009998 26.370001 -4.6799998 12
45.639999 37.43 -4.8899999 24
32.150002 26.370001 -4.6900001 12
36.290001 29.629999 -3.8800001 22
32.32 26.389999 -4.71 12
36.450001 29.620001 -3.8900001 22
32.459999 26.379999 -4.7199998 12
36.450001 29.48 -3.8800001 15
32.630001 26.389999 -4.7399998 18
39.700001 31.959999 -4.2199998 18
32.82 26.43 -4.7600002 18
39.98 32.040001 -4.2399998 17
32.990002 26.440001 -4.77 18
33.139999 26.440001 -4.7800002 12
36.880001 29.290001 -3.9000001 22
38.139999 30.290001 -5.5 16
37.310001 29.49 -3.9400001 23
38.27 30.25 -5.5100002 16
37.650002 29.620001 -3.97 15
38.349998 29.9 -5.4899998 24
36.75 28.52 -3.8499999 22
38.450001 29.85 -5.4899998 24
37.060001 28.629999 -3.8800001 22
38.599998 29.82 -5.5100002 24
53.77 41.330002 -5.6199999 31
38.490002 29.59 -5.48 24
53.619999 41.040001 -5.5900002 30
38.349998 29.360001 -5.4499998 23
53.639999 40.860001 -5.5900002 30
38.349998 29.200001 -5.4400001 23
53.639999 40.669998 -5.5799999 30
38.299999 29.040001 -5.4200001 23
53.779999 40.59 -5.5700002 30
38.369999 28.969999 -5.4200001 23
53.860001 40.450001 -5.5700002 30
38.369999 28.82 -5.4099998 23
53.709999 40.16 -5.5500002 29
38.310001 28.639999 -5.3899999 22
53.91 40.119999 -5.5599999 29
38.380001 28.559999 -5.3899999 22
38.099998 28.219999 -5.3499999 22
38.200001 28.16 -5.3499999 22
38.360001 28.139999 -5.3600001 22
54.689999 39.939999 -5.5999999 29
54.310001 39.470001 -5.5500002 29
38.049999 27.530001 -5.29 21
38.060001 27.41 -5.29 21
54.939999 39.369999 -5.5900002 29
38.060001 27.280001 -5.2800002 21
54.82 39.099998 -5.5700002 29
38.080002 27.16 -5.27 21
54.939999 39.009998 -5.5700002 29
38.119999 27.07 -5.27 21
55.16 38.970001 -5.5900002 29
38.049999 26.879999 -5.25 21
55.299999 38.880001 -5.5900002 29
38.119999 26.809999 -5.25 21
55.43 38.790001 -5.5999999 29
38.27 26.790001 -5.27 21
50.970001 35.5 -5.1399999 24
38.380001 26.73 -5.27 20
51.02 35.369999 -5.1399999 24
38.48 26.67 -5.2800002 21
56.060001 38.669998 -5.6300001 29
38.650002 26.66 -5.29 21
56.02 38.459999 -5.6100001 29
38.860001 26.68 -5.3099999 21
56.240002 38.419998 -5.6300001 29
39.040001 26.67 -5.3200002 14
56.32 38.290001 -5.6300001 29
39.220001 26.67 -5.3400002 21
52.709999 35.669998 -5.2600002 25
39.450001 26.700001 -5.3600001 14
52.919998 35.630001 -5.27 25
39.639999 26.690001 -5.3800001 14
53.349998 35.75 -5.3000002 25
39.810001 26.68 -5.4000001 14
39.970001 26.65 -5.4099998 14
40.060001 26.58 -5.4099998 14
40.169998 26.530001 -5.4200001 14
54.419998 35.759998 -5.3800001 26
40.240002 26.450001 -5.4200001 14
54.599998 35.700001 -5.3899999 26
40.330002 26.370001 -5.4299998 14
54.889999 35.720001 -5.4099998 26
40.439999 26.32 -5.4299998 14
55.240002 35.77 -5.4400001 26
40.560001 26.26 -5.4400001 14
55.549999 35.790001 -5.46 26
40.639999 26.18 -5.4400001 14
55.75 35.75 -5.4699998 26
40.779999 26.15 -5.4499998 14
56.049999 35.759998 -5.4899998 27
40.849998 26.059999 -5.46 14
56.419998 35.810001 -5.52 27
40.939999 25.99 -5.46 14
41.060001 25.93 -5.4699998 14
41.150002 25.870001 -5.4699998 14
57.099998 35.709999 -5.5599999 27
41.299999 25.84 -5.4899998 14
57.41 35.720001 -5.5900002 27
41.34 25.719999 -5.48 14
57.580002 35.650002 -5.5900002 27
41.450001 25.67 -5.48 14
57.77 35.59 -5.5999999 27
41.529999 25.58 -5.4899998 14
58.040001 35.57 -5.6199999 27
41.650002 25.530001 -5.4899998 14
58.279999 35.540001 -5.6300001 27
41.77 25.48 -5.5 14
58.509998 35.5 -5.6399999 27
41.779999 25.360001 -5.5 14
58.77 35.48 -5.6599998 28
41.900002 25.299999 -5.5100002 14
41.98 25.219999 -5.5100002 14
59.09 35.32 -5.6799998 28
42.07 25.15 -5.5100002 14
59.400002 35.32 -5.6999998 28
42.220001 25.110001 -5.5300002 14
59.889999 35.419998 -5.7399998 28
42.290001 25.02 -5.5300002 14
46.84 27.57 -4.48 17
42.41 24.959999 -5.54 14
47.07 27.57 -4.5 17
42.439999 24.85 -5.5300002 14
47.32 27.559999 -4.52 17
42.540001 24.780001 -5.54 14
47.619999 27.6 -4.54 17
42.630001 24.709999 -5.54 14
48.009998 27.68 -4.5700002 17
42.740002 24.639999 -5.5500002 14
48.290001 27.700001 -4.5900002 18
42.84 24.57 -5.5599999 14
48.57 27.719999 -4.6100001 18
42.91 24.49 -5.5500002 14
48.889999 27.75 -4.6300001 18
43.02 24.42 -5.5599999 14
49.150002 27.75 -4.6500001 18
43.110001 24.34 -5.5599999 14
49.450001 27.780001 -4.6700001 18
43.150002 24.24 -5.5599999 14
49.720001 27.780001 -4.6900001 18
43.23 24.16 -5.5599999 14
50.080002 27.83 -4.7199998 18
43.41 24.129999 -5.5799999 14
50.5 27.92 -4.75 19
43.450001 24.02 -5.5799999 14
43.549999 23.950001 -5.5900002 14
56.310001 30.809999 -5.29 35
43.73 23.92 -5.5999999 14
56.759998 30.879999 -5.3200002 35
43.799999 23.83 -5.5999999 14
56.66 30.66 -5.3099999 35
43.82 23.719999 -5.5999999 14
43.830002 23.59 -5.5900002 14
43.91 23.51 -5.5999999 14
44.040001 23.459999 -5.6100001 14
55.98 29.65 -5.2199998 34
44.290001 23.459999 -5.6300001 14
56.139999 29.57 -5.23 33
56.299999 29.5 -5.23 33
56.380001 29.379999 -5.2399998 33
56.490002 29.280001 -5.2399998 33
56.490002 29.120001 -5.23 33
56.459999 28.940001 -5.2199998 33
56.16 28.629999 -5.1799998 32
35.049999 17.870001 -4.4099998 8
55.990002 28.379999 -5.1599998 32
35.09 17.790001 -4.4099998 8
56.130001 28.290001 -5.1700001 32
34.900002 17.59 -4.3899999 12
56.349998 28.24 -5.1799998 21
35.060001 17.57 -4.4000001 12
56.599998 28.209999 -5.1999998 21
34.98 17.440001 -4.3899999 12
56.900002 28.209999 -5.2199998 22
34.900002 17.299999 -4.3699999 12
57.27 28.219999 -5.25 22
34.650002 17.08 -4.3400002 12
57.599998 28.23 -5.2800002 22
57.990002 28.26 -5.3000002 22
58.209999 28.209999 -5.3200002 22
58.470001 28.17 -5.3400002 22
58.529999 28.040001 -5.3400002 22
58.669998 27.940001 -5.3400002 22
58.82 27.85 -5.3499999 22
34.889999 16.52 -4.3299999 8
58.970001 27.76 -5.3600001 22
34.900002 16.43 -4.3299999 8
59.16 27.690001 -5.3699999 22
59.369999 27.629999 -5.3899999 22
59.470001 27.51 -5.3899999 22
35.41 16.379999 -4.3800001 8
59.810001 27.51 -5.4099998 23
35.700001 16.42 -4.4099998 8
59.849998 27.35 -5.4099998 22
35.830002 16.379999 -4.4200001 8
36.290001 16.49 -4.4699998 8
60.18 27.190001 -5.4200001 22
36.470001 16.48 -4.4899998 8
60.259998 27.049999 -5.4200001 23
36.799999 16.530001 -4.52 8
60.380001 26.950001 -5.4299998 23
60.59 26.879999 -5.4400001 22
60.650002 26.74 -5.4400001 22
60.75 26.629999 -5.4499998 22
37.869999 16.6 -4.6300001 8
37.91 16.51 -4.6300001 8
61.259998 26.190001 -5.4699998 22
61.040001 25.940001 -5.4499998 22
61.259998 25.870001 -5.46 22
62.279999 25.32 -5.52 23
62.52 25.26 -5.54 23
51.669998 16.290001 -6.0599999 14
51.799999 16.200001 -6.0700002 14
60.529999 15.26 -5.0999999 17
60.529999 15.12 -5.0900002 17
60.580002 14.99 -5.0900002 17
40.77 10.09 -4.6900001 8
60.639999 14.86 -5.0999999 17
40.759998 9.9899998 -4.6799998 8
60.66 14.72 -5.0900002 17
40.84 9.9099998 -4.6900001 12
60.720001 14.59 -5.0999999 17
42.560001 10.13 -4.8800001 8
42.610001 10.04 -4.8899999 8
44.290001 10.33 -5.0799999 9
44.41 10.25 -5.0900002 14
46.200001 10.45 -5.29 15
46.200001 10.34 -5.2800002 15
47.98 10.63 -5.4899998 16
48.009998 10.52 -5.4899998 16
54.459999 11.42 -6.21 13
54.630001 11.32 -6.23 14
54.66 11.2 -6.2199998 14
54.630001 11.07 -6.2199998 14
55.34 11.09 -4.5999999 14
54.880001 11 -6.2399998 14
55.169998 10.92 -4.5799999 14
57.040001 11.16 -4.7399998 15
56.98 11.02 -4.73 15
55.41 10.46 -6.29 14
55.52 10.35 -6.3000002 14
55.650002 10.24 -6.3099999 14
55.830002 10.14 -6.3299999 14
55.84 10.02 -6.3299999 14
56.16 9.9399996 -6.3600001 14
56.66 9.8999996 -6.4099998 14
57 9.8299999 -6.4499998 14
57.029999 9.6999998 -6.4499998 14
57.049999 9.5799999 -6.4499998 14
67.650002 11.2 -5.5900002 20
56.889999 9.4099998 -6.4299998 14
67.330002 10.99 -5.5599999 20
56.959999 9.29 -6.4400001 14
67.07 10.8 -5.54 20
75.239998 11.75 -6.1999998 25
75.480003 11.61 -6.2199998 25
75.620003 11.46 -6.2199998 25
75.760002 11.32 -6.23 25
77.040001 10.79 -6.3299999 26
77.360001 10.67 -6.3600001 26
74.739998 9.4499998 -6.1300001 24
74.379997 9.2299995 -6.0999999 36
74.790001 9.1099997 -6.1300001 24
74.489998 8.2299995 -6.0999999 24
74.370003 8.0500002 -6.0799999 84
74.480003 7.8899999 -6.0900002 24
56.290001 4.4400001 -6.29 13
55.889999 4.2800002 -6.2399998 13
55.93 4.1599998 -6.2399998 26
55.919998 4.02 -6.2399998 13
55.919998 3.9000001 -6.2399998 13
55.939999 3.78 -6.2399998 13
56 3.6600001 -6.25 13
56.099998 3.54 -6.2600002 20
56.080002 3.4100001 -6.2399998 255
56.029999 3.28 -6.2399998 73
84.779999 3.05 -6.8800001 30
84.839996 2.8599999 -6.8899999 30
85.190002 2.49 -6.9200001 30
85.220001 2.3 -6.9099998 30
64.169998 -1.4299999 -7.1199999 17
64.239998 -1.58 -7.1300001 17
89.580002 -2.4000001 -7.25 33
88.760002 -2.5699999 -7.1799998 33
89.989998 -2.8099999 -7.2800002 34
90.540001 -3.03 -7.3299999 34
90.889999 -3.24 -7.3600001 34
66.120003 -4 -7.3499999 18
84.07 -5.27 -6.8099999 29
65.510002 -4.1100001 -7.2800002 18
83.809998 -5.4499998 -6.79 29
64.949997 -4.2199998 -7.2199998 17
84.32 -5.6700001 -6.8299999 30
64.949997 -4.3699999 -7.2199998 26
84.599998 -5.8699999 -6.8499999 30
65.610001 -4.5599999 -7.29 18
65.699997 -4.6999998 -7.3000002 27
63.490002 -4.6900001 -7.0599999 255
63.459999 -4.8299999 -7.0500002 255
80.879997 -6.9000001 -6.5599999 27
81.339996 -7.1199999 -6.5999999 28
81.5 -7.3200002 -6.6100001 28
69.529999 -6.4000001 -7.7399998 31
37.209999 -3.51 -3.02 5
69.760002 -6.5799999 -7.77 20
37.099998 -3.5899999 -3.01 5
70.019997 -6.77 -7.8000002 31
28.48 -2.8199999 -2.3099999 5
70.379997 -6.9699998 -7.8400002 31
28.440001 -2.8800001 -2.3099999 6
70.360001 -7.1199999 -7.8400002 21
71.330002 -7.3800001 -7.9499998 21
28.41 -3 -2.3 5
71.690002 -7.5799999 -7.9899998 22
28.26 -3.05 -2.29 5
71.699997 -7.75 -7.9899998 22
71.900002 -7.9299998 -8.0200005 22
72.32 -8.1300001 -8.0699997 22
72.720001 -8.3500004 -8.1000004 22
72.959999 -8.54 -8.1300001 23
75.480003 -9.1800003 -8.4099998 24
75.389999 -9.3400002 -8.4099998 24
75.480003 -9.5299997 -8.4200001 24
77.910004 -10.01 -8.6899996 26
27.629999 -3.6099999 -2.24 4
77.190002 -10.1 -8.6199999 26
27.889999 -3.71 -2.27 3
76.860001 -10.23 -8.5799999 25
76.800003 -10.39 -8.5799999 25
27.17 -3.74 -2.21 8
76.360001 -10.51 -8.5299997 25
27.200001 -3.8 -2.21 6
75.730003 -10.6 -8.46 25
75.019997 -10.66 -8.3900003 24
27.049999 -3.9100001 -2.2 11
74.809998 -10.81 -8.3699999 24
27.27 -4 -2.22 8
27.41 -4.0900002 -2.23 11
37.169998 -5.54 -4.1599998 9
27.469999 -4.1599998 -2.24 11
37.23 -5.6399999 -4.1599998 9
36.18 -5.8099999 -4.0500002 8
36.07 -5.8699999 -4.04 8
36.110001 -5.96 -4.0500002 8
35.849998 -6.0900002 -4.02 8
36 -6.1900001 -4.04 5
27.870001 -4.8600001 -2.28 6
35.77 -6.2399998 -4.0100002 5
27.780001 -4.9099998 -2.27 6
27.77 -4.9699998 -2.27 8
35.700001 -6.3899999 -4.0100002 5
27.83 -5.04 -2.27 6
35.59 -6.4499998 -4 8
35.68 -6.5500002 -4.0100002 8
34.580002 -6.5100002 -3.8900001 13
34.57 -6.5900002 -3.8900001 13
31.82 -6.1399999 -2.6099999 18
34.84 -6.7199998 -3.9200001 10
32 -6.25 -2.6199999 4
35.400002 -6.9099998 -3.99 8
35.220001 -6.96 -3.97 14
34.91 -6.98 -3.9400001 11
33.360001 -6.8200002 -3.76 5
33.330002 -6.9000001 -3.76 5
35.459999 -7.5 -4 8
35.34 -7.5599999 -3.99 5
28.6 -6.1799998 -2.3499999 3
28.66 -6.27 -2.3599999 7
28.690001 -6.3400002 -2.3599999 3
36.200001 -8.1700001 -2.98 8
36.099998 -8.2399998 -2.98 5
30.469999 -7.0900002 -3.45 4
30.41 -7.1500001 -3.45 6
28.9 -6.8600001 -2.3900001 5
30.440001 -7.23 -3.45 8
28.879999 -6.9200001 -2.3800001 5
30.389999 -7.29 -3.45 6
28.93 -7.0100002 -2.3900001 5
29.84 -7.23 -3.3900001 4
39.220001 -9.6000004 -3.24 7
29.83 -7.3000002 -3.3900001 6
39.52 -9.7700005 -3.27 7
29.790001 -7.3600001 -3.3800001 4
34.849998 -8.9399996 -2.8900001 5
34.759998 -9 -2.8800001 5
38.27 -9.9099998 -4.3600001 10
34.630001 -9.0500002 -2.8699999 5
38.52 -10.07 -4.3899999 13
29.459999 -7.77 -2.4400001 8
29.41 -7.8299999 -2.4400001 8
36.540001 -10.43 -4.1900001 6
34.689999 -9.9899998 -2.9000001 5
36.360001 -10.47 -4.1700001 6
34.720001 -10.08 -2.9000001 5
39.610001 -11.51 -4.5500002 7
34.509998 -10.11 -2.8800001 5
39.389999 -11.54 -4.5300002 11
34.57 -10.2 -2.8900001 5
34.470001 -10.34 -2.8800001 5
38.950001 -11.69 -4.48 11
34.43 -10.41 -2.8800001 5
38.950001 -11.78 -4.48 11
34.450001 -10.51 -2.8800001 5
51.509998 -15.72 -5.9299998 12
34.450001 -10.59 -2.8900001 5
51.459999 -15.82 -5.9299998 19
34.48 -10.69 -2.8900001 5
34.689999 -10.84 -2.9100001 5
34.650002 -10.99 -2.9100001 5
25.35 -8.04 -2.9300001 4
34.759998 -11.11 -2.9200001 5
25.33 -8.1000004 -2.9300001 3
34.68 -11.18 -2.9200001 5
34.59 -11.23 -2.9100001 8
36.82 -11.96 -4.2600002 10
34.490002 -11.29 -2.9100001 5
37.02 -12.11 -4.29 10
34.18 -11.35 -2.8800001 8
36.869999 -12.25 -4.2800002 10
34.27 -11.47 -2.9000001 5
36.919998 -12.36 -4.29 10
35.990002 -12.23 -4.1900001 13
36.25 -12.4 -4.2199998 9
25.25 -8.8299999 -2.9400001 4
34.799999 -12.26 -2.95 6
25.190001 -8.8699999 -2.9400001 4
34.43 -12.22 -2.9200001 6
25.15 -8.9200001 -2.9300001 4
72.709999 -26.35 -6.1900001 26
72.730003 -26.540001 -6.1999998 26
71.419998 -26.43 -6.0999999 26
71.730003 -26.719999 -6.1300001 26
34.07 -12.78 -2.9100001 5
34.91 -13.1 -4.0999999 12
33.990002 -12.84 -2.9100001 5
35.16 -13.28 -4.1300001 9
34.099998 -12.96 -2.9200001 9
35.990002 -13.68 -4.23 10
34.16 -13.08 -2.9200001 6
35.740002 -13.68 -4.21 10
35.290001 -13.69 -4.1599998 9
35.220001 -13.76 -4.1599998 13
34.919998 -13.73 -4.1300001 6
34.779999 -13.77 -4.1100001 6
35.09 -13.98 -3.02 6
35.209999 -14.11 -3.03 6
35.049999 -14.15 -3.02 6
35.189999 -14.29 -3.03 6
35.07 -14.34 -3.03 6
34.09 -13.94 -4.0500002 24
34.93 -14.37 -3.02 9
33.779999 -13.9 -4.0100002 9
33.75 -13.97 -4.0100002 9
33.580002 -13.99 -4 6
33.75 -14.15 -4.02 12
33.66 -14.2 -4.0100002 12
35.23 -15.15 -4.21 10
35.259998 -15.25 -4.2199998 10
35.290001 -15.35 -4.23 6
34.919998 -15.29 -4.1900001 10
35.16 -15.49 -4.2199998 10
35.099998 -15.56 -4.2199998 6
28.440001 -12.76 -3.4200001 4
28.530001 -12.88 -3.4400001 6
28.190001 -12.8 -3.4000001 4
28.280001 -12.92 -3.4200001 4
28.25 -12.98 -3.4100001 11
28.120001 -12.99 -3.4000001 4
28.309999 -13.16 -3.4300001 6
29.889999 -13.98 -2.6300001 12
28.469999 -13.31 -3.45 6
30.110001 -14.16 -2.6500001 5
29.77 -14.49 -2.6400001 5
29.809999 -14.6 -2.6500001 5
29.799999 -14.67 -2.6500001 7
26.17 -13.33 -2.3399999 10
26.15 -13.39 -2.3399999 12
25.43 -13.02 -3.1400001 9
30.15 -15.53 -2.7 5
25.33 -13.05 -3.1300001 7
29.889999 -15.48 -2.6800001 5
25.33 -13.11 -3.1300001 9
29.9 -15.57 -2.6800001 5
27.950001 -14.71 -2.51 7
24.41 -12.85 -3.02 10
28.139999 -14.89 -2.53 7
24.280001 -12.85 -3.01 7
23.68 -12.6 -2.1300001 10
23.889999 -12.71 -2.96 3
23.66 -12.66 -2.1400001 8
23.860001 -12.76 -2.96 3
23.719999 -12.75 -2.1400001 3
23.879999 -12.84 -2.97 5
23.559999 -12.74 -2.1300001 10
23.790001 -12.93 -2.97 5
23.610001 -12.9 -2.95 6
23.58 -12.95 -2.95 6
24.73 -13.66 -2.25 13
23.75 -13.12 -2.97 8
24.639999 -13.68 -2.24 9
23.620001 -13.12 -2.96 10
23.549999 -13.15 -2.96 7
24.309999 -13.64 -2.22 5
23.610001 -13.25 -2.97 8
24.219999 -13.66 -2.21 7
23.799999 -13.43 -2.99 10
23.690001 -13.44 -2.98 12
23.66 -13.49 -2.98 7
23.68 -13.57 -2.1700001 5
23.780001 -13.63 -3 9
23.620001 -13.61 -2.1700001 5
23.99 -13.9 -3.04 5
23.799999 -13.85 -2.1900001 5
23.9 -13.91 -3.03 7
23.690001 -13.86 -2.1800001 9
23.77 -13.91 -3.02 3
23.879999 -14.05 -2.2 9
23.629999 -13.9 -3 3
24.08 -14.24 -2.22 11
23.719999 -14.02 -3.02 3
23.940001 -14.23 -2.21 3
23.02 -13.82 -2.9400001 8
29.84 -18.01 -2.77 5
23.129999 -13.95 -2.96 12
29.68 -18 -2.76 8
22.99 -13.94 -2.9400001 8
29.709999 -18.110001 -2.77 8
22.98 -14.01 -2.95 8
29.67 -18.18 -2.77 8
29.74 -18.309999 -2.78 8
29.51 -18.26 -2.76 11
30.110001 -18.73 -2.8199999 6
29.75 -18.51 -3.8399999 12
30.030001 -18.780001 -2.8099999 9
29.84 -18.66 -3.8499999 9
30.07 -18.889999 -2.8199999 9
29.860001 -18.76 -3.8599999 9
29.860001 -18.85 -2.8 12
29.82 -18.82 -3.8599999 9
29.549999 -18.75 -2.78 12
23.26 -14.83 -2.1900001 3
23.219999 -14.88 -2.1900001 3
23.67 -15.47 -3.0899999 11
22.98 -15.1 -2.1800001 3
23.700001 -15.57 -3.0999999 12
22.870001 -15.1 -2.1700001 3
23.540001 -15.54 -3.0899999 11
22.9 -15.19 -2.1800001 5
23.32 -15.47 -3.0599999 9
22.690001 -15.12 -2.1600001 9
23.110001 -15.7 -3.0599999 17
23.1 -15.77 -3.0599999 17
22.780001 -15.63 -2.1900001 15
23.09 -15.84 -3.0599999 7
22.559999 -15.55 -2.1700001 11
22.620001 -15.67 -2.1800001 7
23.4 -16.440001 -3.1300001 45
23.35 -16.48 -3.1199999 18
23.200001 -16.459999 -3.1099999 6
23.18 -16.52 -2.25 4
23.07 -16.440001 -3.0999999 8
22.92 -16.41 -2.23 4
22.190001 -16.35 -3.01 11
22.17 -16.41 -3.01 7
28 -21.120001 -2.78 6
21.98 -16.58 -3.01 3
27.85 -21.1 -2.77 6
22.09 -16.74 -3.03 7
27.93 -21.26 -2.78 6
21.879999 -16.74 -2.1800001 7
21.870001 -16.799999 -2.1800001 5
21.870001 -16.879999 -2.1800001 5
18.34 -14.29 -2.53 7
18.379999 -14.39 -2.55 9
18.33 -14.41 -2.54 11
18.4 -14.53 -2.5599999 8
17.24 -13.69 -1.74 3
18.389999 -14.59 -2.5599999 7
17.23 -13.74 -1.74 5
18.35 -14.63 -2.5599999 7
18.25 -14.62 -2.55 7
17.299999 -13.92 -1.75 2
18.4 -14.8 -2.5699999 10
17.120001 -13.84 -1.74 2
18.360001 -14.84 -2.5699999 8
17.18 -13.95 -1.75 5
18.35 -14.9 -2.5799999 10
18.299999 -14.92 -2.5699999 5
17.1 -14.02 -1.75 3
17.120001 -14.1 -1.75 6
17.120001 -14.16 -1.76 7
17.809999 -14.73 -2.52 11
17.139999 -14.24 -1.76 10
17.780001 -14.77 -2.52 11
17.719999 -14.79 -2.52 14
17.799999 -14.92 -2.53 12
23.860001 -20.1 -2.46 5
23.84 -20.18 -2.47 5
23.860001 -20.370001 -2.48 5
18.290001 -15.62 -2.6199999 7
23.709999 -20.33 -2.47 5
18.370001 -15.75 -2.6400001 7
23.66 -20.389999 -2.47 5
18.48 -15.93 -2.6600001 4
17.08 -14.79 -2.46 5
17.08 -14.85 -2.47 9
16.879999 -14.74 -2.4400001 8
16.219999 -14.24 -1.7 6
16.76 -14.71 -2.4300001 8
16.120001 -14.21 -1.7 4
16.92 -14.91 -2.46 9
16.049999 -14.21 -1.6900001 4
16.85 -14.92 -2.45 8
15.9 -14.14 -1.6799999 4
16.85 -14.98 -2.46 6
15.96 -14.26 -1.6900001 4
15.98 -14.34 -1.6900001 8
16.15 -14.69 -2.3800001 7
