# .PCD v0.7 - Point Cloud Data file format
VERSION 0.7
FIELDS x y z intensity
SIZE 4 4 4 4
TYPE F F F F
COUNT 1 1 1 1
WIDTH 1680
HEIGHT 1
VIEWPOINT 0 0 0 1 0 0 0
POINTS 1680
DATA ascii
42.09 -10.4 -5.8400002 12
29.629999 -7.3899999 -3.2 8
42 -10.48 -5.8299999 30
34.490002 -8.7700005 -3.73 5
34.5 -8.8500004 -3.73 5
39.57 -10.15 -5.5100002 11
34.330002 -8.8900003 -3.71 8
39.5 -10.23 -5.5 11
34.32 -8.9700003 -3.71 8
39.23 -10.25 -5.46 11
39.130001 -10.32 -5.4499998 11
31.77 -8.46 -3.4400001 7
39.189999 -10.43 -5.4699998 7
31.610001 -8.4899998 -3.4300001 7
39.200001 -10.62 -5.4699998 11
39.419998 -10.78 -5.5100002 7
36.09 -10.21 -3.9300001 9
35.950001 -10.26 -3.9200001 9
28.309999 -8.0799999 -3.97 8
35.860001 -10.32 -3.9100001 6
28.559999 -8.2200003 -4.0100002 8
28.549999 -8.29 -4.0100002 8
39.049999 -11.63 -5.5 11
38.939999 -11.68 -5.48 11
39.080002 -11.82 -5.5100002 11
51.57 -15.73 -7.27 13
51.619999 -15.87 -7.29 13
37.310001 -11.56 -4.0900002 10
55.610001 -17.24 -7.8600001 15
36.93 -11.54 -4.0599999 10
55.91 -17.469999 -7.9000001 16
36.849998 -11.6 -4.0500002 10
36.869999 -11.7 -4.0500002 10
36.959999 -11.82 -4.0700002 10
36.939999 -11.91 -4.0700002 7
37.27 -12.01 -5.2800002 10
37.02 -12.02 -4.0799999 10
37.150002 -12.06 -5.27 10
69.669998 -22.799999 -9.8900003 25
69.199997 -22.82 -9.8299999 24
36.419998 -12.1 -5.1799998 6
36.43 -12.19 -5.1799998 10
68.43 -23.08 -9.75 24
67.809998 -23.040001 -9.6700001 24
67.330002 -23.040001 -9.6099997 23
67.169998 -23.15 -9.6000004 23
67.050003 -23.280001 -9.5900002 23
67.599998 -23.65 -9.6700001 24
66.199997 -23.66 -9.5 23
66.260002 -23.84 -9.5100002 23
66 -23.92 -9.4799995 23
66.07 -24.110001 -9.5 35
65.879997 -24.209999 -9.4799995 23
65.889999 -24.379999 -9.4899998 23
65.75 -24.5 -9.4799995 23
65.559998 -24.6 -9.46 35
36.029999 -13.61 -4.04 7
65.449997 -24.719999 -9.4499998 23
35.73 -13.59 -4.0100002 6
65.32 -24.84 -9.4399996 34
34.669998 -13.27 -3.9000001 16
36.209999 -13.87 -5.2399998 7
34.639999 -13.35 -3.9000001 16
36.060001 -13.89 -5.2199998 7
34.330002 -13.31 -3.8599999 16
34.959999 -13.66 -3.9400001 10
34.990002 -13.67 -5.0799999 13
35.029999 -13.77 -3.95 10
34.98 -13.75 -5.0799999 13
35.150002 -13.91 -3.97 10
34.700001 -13.73 -5.04 13
35.169998 -14.01 -3.98 10
35.209999 -14.11 -3.99 10
33.75 -13.62 -4.9200001 12
33.639999 -13.66 -4.9099998 9
33.75 -13.8 -4.9299998 6
33.419998 -13.75 -4.8800001 6
30.76 -12.82 -4.5 10
34.02 -14.26 -3.8800001 16
30.860001 -12.94 -4.52 5
33.790001 -14.25 -3.8499999 12
33.639999 -14.19 -4.9299998 6
33.799999 -14.36 -4.96 9
33.959999 -14.51 -4.9899998 9
35.619999 -15.31 -4.0700002 14
35.560001 -15.38 -4.0799999 14
34.060001 -14.73 -5.02 10
35.869999 -15.61 -4.1199999 11
34.310001 -14.93 -5.0599999 6
34.220001 -14.99 -5.0500002 10
35.639999 -15.7 -4.0999999 7
35.66 -15.81 -4.0999999 7
34.849998 -15.45 -5.1599998 10
34.470001 -15.37 -5.1100001 10
33.959999 -15.24 -3.9200001 6
34.389999 -15.43 -5.0999999 10
34.110001 -15.39 -3.9400001 10
36.07 -16.280001 -5.3499999 11
34.25 -15.55 -3.96 6
36.290001 -16.48 -5.3899999 7
30.200001 -13.79 -4.4899998 10
30.219999 -13.88 -4.5 5
33.459999 -15.46 -4.9899998 6
33.369999 -15.51 -4.98 6
27.42 -12.82 -4.0900002 8
28.5 -13.4 -3.3099999 4
27.309999 -12.84 -4.0799999 6
28.709999 -13.58 -3.3399999 4
27.6 -13.06 -4.1300001 9
27.4 -13.04 -4.0999999 11
30.16 -14.44 -3.52 5
27.27 -13.06 -4.0900002 8
29.950001 -14.41 -3.5 5
27.110001 -13.05 -4.0700002 4
27.24 -13.19 -4.0900002 4
29.35 -14.53 -3.45 7
26.059999 -12.91 -3.9400001 6
29.24 -14.56 -3.4400001 5
26.059999 -12.98 -3.9400001 8
32.580002 -16.32 -3.8399999 6
26.049999 -13.04 -3.9400001 6
32.48 -16.360001 -3.8299999 6
25.889999 -13.04 -3.9200001 10
28.780001 -14.58 -3.4000001 7
28.780001 -14.66 -3.4000001 5
24.57 -12.58 -3.74 5
28.51 -14.69 -3.3800001 5
24.48 -12.61 -3.73 5
28.52 -14.77 -3.3800001 7
24.42 -12.71 -3.73 5
28.889999 -15.13 -3.4300001 5
24.42 -12.79 -3.73 3
28.690001 -15.1 -3.4100001 5
24.43 -12.86 -3.74 7
24.66 -13.05 -3.78 7
24.719999 -13.15 -3.79 9
24.559999 -13.21 -3.77 3
24.67 -13.34 -3.8 9
23.790001 -13 -2.8599999 14
23.889999 -13.06 -3.6900001 11
23.690001 -13.02 -2.8499999 9
23.99 -13.18 -3.71 11
23.67 -13.07 -2.8499999 12
23.98 -13.24 -3.71 9
23.620001 -13.12 -2.8499999 10
23.85 -13.25 -3.7 9
23.559999 -13.15 -2.8399999 3
23.74 -13.25 -3.6800001 5
23.690001 -13.3 -2.8599999 7
23.58 -13.24 -3.6600001 12
23.629999 -13.33 -2.8599999 9
24.280001 -13.85 -2.95 7
24.200001 -13.87 -2.9400001 7
24.23 -13.96 -2.95 9
22.98 -13.24 -3.5899999 8
22.950001 -13.29 -3.5899999 8
28.889999 -16.99 -3.53 11
22.77 -13.4 -3.5799999 14
28.790001 -17.02 -3.53 5
22.629999 -13.38 -3.5599999 8
28.879999 -17.16 -3.54 11
22.459999 -13.35 -3.54 3
22.49 -13.44 -3.55 5
22.950001 -13.85 -2.8299999 5
23.030001 -13.96 -2.8399999 7
23 -14.02 -2.8399999 7
22.98 -14.08 -2.8399999 5
22.969999 -14.14 -2.8499999 7
29.809999 -18.450001 -3.7 6
29.67 -18.450001 -3.6900001 9
21.5 -13.37 -3.4300001 6
29.700001 -18.57 -3.7 9
21.34 -13.34 -3.4100001 3
29.77 -18.700001 -3.71 9
29.959999 -18.91 -3.74 6
27.76 -17.620001 -3.47 5
26.98 -17.120001 -4.3299999 5
27.49 -17.530001 -3.4400001 5
27.200001 -17.34 -4.3800001 5
23.559999 -15.1 -2.95 6
27.02 -17.32 -4.3499999 8
23.6 -15.2 -2.96 6
26.73 -17.209999 -4.3099999 5
23.5 -15.2 -2.95 6
26.629999 -17.23 -4.3000002 5
23.27 -15.13 -2.9300001 5
26.809999 -17.440001 -4.3400002 7
26.969999 -17.620001 -4.3699999 5
23.049999 -15.14 -2.9100001 7
23.190001 -15.31 -2.9300001 9
23.66 -15.62 -3.8499999 6
23.200001 -15.38 -2.9400001 12
23.450001 -15.55 -3.8199999 6
22.940001 -15.29 -2.9100001 15
23.4 -15.59 -3.8099999 4
22.91 -15.34 -2.9100001 11
23.33 -15.62 -3.8099999 4
23.389999 -15.74 -3.8199999 12
22.719999 -15.44 -3.73 7
22.780001 -15.55 -2.9100001 17
22.75 -15.53 -3.74 13
22.790001 -15.63 -2.9200001 15
22.530001 -15.45 -3.71 7
22.870001 -15.76 -2.9300001 4
22.360001 -15.41 -3.6900001 3
22.25 -15.41 -3.6700001 3
22.25 -15.48 -3.6800001 5
23.52 -16.450001 -3.03 10
22.219999 -15.54 -3.6800001 9
23.32 -16.389999 -3.01 8
22.07 -15.51 -3.6600001 3
23.17 -16.360001 -3 16
23.68 -16.799999 -3.0699999 6
22.09 -15.67 -3.6800001 3
23.690001 -16.889999 -3.0699999 4
22.190001 -15.82 -3.7 5
22.370001 -16.02 -3.74 16
22.16 -15.94 -3.71 3
22.82 -16.57 -2.98 4
22.92 -16.73 -3 6
22.290001 -16.34 -2.9200001 6
22.309999 -16.440001 -2.9300001 10
18.32 -13.68 -2.4200001 5
18.309999 -13.74 -2.4200001 7
18.25 -13.76 -2.4200001 4
18.27 -13.84 -2.4200001 5
18.299999 -13.93 -2.4300001 5
18.290001 -13.99 -2.4300001 5
19.549999 -14.95 -3.3399999 8
19.57 -15.03 -3.3499999 8
18.27 -14.1 -2.4400001 7
18.309999 -14.2 -2.45 8
18.290001 -14.38 -2.46 4
18.309999 -14.46 -2.47 7
18.309999 -14.53 -3.1800001 10
18.23 -14.53 -2.47 2
18.34 -14.62 -3.1900001 12
18.24 -14.61 -2.47 7
18.24 -14.62 -3.1800001 8
18.190001 -14.63 -2.47 5
18.27 -14.7 -3.1900001 6
18.15 -14.67 -2.47 7
18.17 -14.69 -3.1800001 7
18.08 -14.68 -2.47 7
18.15 -14.74 -3.1800001 9
17.969999 -14.66 -2.46 7
18.58 -15.23 -2.54 6
18.540001 -15.19 -3.26 6
18.59 -15.3 -2.55 7
18.370001 -15.12 -3.24 15
17.74 -14.67 -2.4400001 11
18.5 -15.3 -3.26 12
17.65 -14.67 -2.4300001 8
18.360001 -15.32 -3.25 7
18.190001 -15.25 -3.23 7
17.43 -14.68 -2.4100001 8
18.139999 -15.28 -3.23 6
17.389999 -14.71 -2.4100001 8
17.379999 -14.78 -2.4200001 11
17.299999 -14.71 -3.0899999 8
17.27 -14.74 -2.4000001 8
17.190001 -14.68 -3.0699999 5
17.120001 -14.68 -2.3900001 7
17.129999 -14.7 -3.0699999 9
17.200001 -14.82 -2.4000001 12
17.18 -14.8 -3.0799999 8
17.1 -14.8 -2.3900001 8
17.110001 -14.88 -2.4000001 11
17.049999 -14.82 -3.0699999 8
17.049999 -14.89 -2.4000001 4
16.959999 -14.81 -3.0599999 9
16.969999 -14.89 -2.3900001 5
16.860001 -14.86 -3.0599999 5
16.48 -14.6 -2.3299999 5
16.92 -14.98 -3.0799999 7
16.440001 -14.62 -2.3299999 5
17.42 -15.49 -3.1700001 6
16.4 -14.65 -2.3299999 6
17.42 -15.56 -3.1800001 6
16.35 -14.67 -2.3299999 5
17.4 -15.61 -3.1800001 7
16.459999 -14.84 -2.3499999 4
17.35 -15.65 -3.1800001 4
16.42 -14.87 -2.3499999 4
17.549999 -15.89 -3.22 4
16.43 -14.94 -2.3499999 8
17.540001 -15.96 -3.23 6
16.57 -15.14 -2.3800001 9
16.530001 -15.17 -2.3800001 8
16.49 -15.21 -2.3800001 8
29.870001 -27.540001 -5.5300002 9
29.959999 -27.76 -5.5599999 14
17.68 -16.450001 -3.29 6
17.120001 -16 -2.48 4
17.59 -16.440001 -3.28 3
17.18 -16.129999 -2.5 12
16.969999 -16.01 -2.47 10
15.53 -14.64 -2.9000001 9
16.940001 -16.040001 -2.47 6
15.56 -14.74 -2.9200001 11
16.870001 -16.049999 -2.47 7
15.55 -14.8 -2.9200001 15
15.54 -14.85 -2.9200001 4
17.09 -16.41 -2.51 8
15.47 -14.86 -2.9200001 13
17.07 -16.469999 -2.51 6
15.45 -14.9 -2.9200001 9
16.17 -15.67 -2.3900001 2
15.52 -15.04 -2.9400001 9
16.209999 -15.77 -2.4000001 10
15.41 -15 -2.9300001 9
16.18 -15.81 -2.4000001 4
15.31 -14.97 -2.9200001 10
15.33 -15.06 -2.9300001 16
16.209999 -15.99 -2.4200001 4
16.25 -16.1 -2.4300001 10
28.52 28.41 -5.54 20
28.51 28.27 -5.5300002 20
28.5 28.129999 -5.5100002 20
30.09 29.57 -4.54 21
28.52 28.02 -5.5100002 19
30.110001 29.450001 -4.54 14
28.639999 28.01 -5.52 19
28.73 27.98 -5.52 19
28.82 27.950001 -5.5300002 19
35.48 34.240002 -5.3099999 19
28.969999 27.959999 -5.5500002 20
35.84 34.439999 -5.3499999 19
29.030001 27.9 -5.5500002 19
36.02 34.450001 -5.3699999 20
29.110001 27.84 -5.5500002 19
36.18 34.450001 -5.3800001 20
29.15 27.76 -5.5500002 19
36.02 34.150002 -5.3499999 19
29.16 27.65 -5.54 19
36.349998 34.299999 -5.3800001 20
29.33 27.68 -5.5599999 19
36.549999 34.34 -5.4000001 19
29.110001 27.35 -5.5 19
40.310001 37.689999 -5.9400001 24
29.190001 27.290001 -5.5100002 19
40.509998 37.709999 -5.96 24
29.35 27.33 -5.5300002 19
29.370001 27.23 -5.52 19
40.869999 37.709999 -5.9899998 24
29.360001 27.09 -5.5 19
41.099998 37.75 -6.0100002 24
29.41 27.01 -5.5 18
41.029999 37.529999 -5.9899998 24
29.370001 26.860001 -5.48 18
29.370001 26.74 -5.4699998 18
41.290001 37.41 -6 24
29.17 26.440001 -5.4200001 18
41.16 37.139999 -5.9699998 24
29.139999 26.299999 -5.4099998 18
41.279999 37.07 -5.98 23
29.639999 26.620001 -5.4899998 18
29.700001 26.559999 -5.4899998 18
29.76 26.49 -5.4899998 18
29.73 26.34 -5.48 18
31.67 27.940001 -4.5500002 13
29.75 26.24 -5.4699998 18
31.809999 27.93 -4.5599999 13
29.73 26.1 -5.46 17
39.490002 34.52 -5.6599998 20
29.799999 26.049999 -5.46 18
39.720001 34.560001 -5.6799998 21
29.889999 26.01 -5.46 18
39.889999 34.549999 -5.6900001 21
29.99 25.98 -5.4699998 18
40.110001 34.580002 -5.71 32
30.129999 25.98 -5.4899998 18
40.259998 34.560001 -5.7199998 31
30.25 25.959999 -5.5 17
40.450001 34.57 -5.7399998 31
30.389999 25.969999 -5.5100002 18
40.689999 34.610001 -5.7600002 21
30.5 25.950001 -5.52 18
40.830002 34.57 -5.77 21
30.67 25.969999 -5.54 18
40.959999 34.52 -5.7800002 21
30.780001 25.950001 -5.5500002 18
41.23 34.59 -5.8000002 21
30.950001 25.969999 -5.5700002 18
41.389999 34.580002 -5.8200002 21
31.09 25.969999 -5.5900002 18
41.52 34.529999 -5.8299999 21
31.23 25.969999 -5.6100001 12
41.630001 34.459999 -5.8299999 21
31.33 25.93 -5.6100001 12
41.939999 34.549999 -5.8699999 21
31.4 25.870001 -5.6199999 12
31.49 25.82 -5.6199999 12
42.34 34.560001 -5.9000001 21
31.57 25.77 -5.6199999 12
42.259998 34.349998 -5.8800001 21
31.65 25.719999 -5.6300001 12
42.41 34.299999 -5.8899999 21
31.719999 25.66 -5.6300001 12
31.809999 25.620001 -5.6399999 12
42.84 34.34 -5.9299998 21
31.870001 25.549999 -5.6399999 12
42.84 34.18 -5.9200001 21
32 25.530001 -5.6500001 12
43.009998 34.150002 -5.9299998 32
32.060001 25.459999 -5.6500001 12
43.220001 34.16 -5.9499998 21
32.130001 25.4 -5.6500001 12
43.259998 34.040001 -5.9400001 21
32.240002 25.370001 -5.6599998 12
43.490002 34.060001 -5.96 32
32.310001 25.32 -5.6700001 12
43.66 34.029999 -5.98 21
32.389999 25.25 -5.6700001 12
43.849998 34.029999 -5.9899998 21
32.48 25.209999 -5.6799998 12
44.080002 34.049999 -6.0100002 22
32.540001 25.139999 -5.6799998 12
34.470001 26.5 -4.6900001 13
32.66 25.110001 -5.6900001 12
34.599998 26.49 -4.6999998 13
32.709999 25.040001 -5.6799998 11
34.779999 26.49 -4.7199998 13
32.790001 24.98 -5.6900001 11
34.939999 26.5 -4.73 13
32.880001 24.93 -5.6999998 12
35.110001 26.5 -4.75 13
32.939999 24.870001 -5.6999998 12
35.380001 26.58 -4.7800002 13
33.02 24.799999 -5.6999998 12
35.599998 26.629999 -4.8000002 13
33.119999 24.77 -5.71 11
35.830002 26.66 -4.8299999 13
33.18 24.690001 -5.71 11
36.009998 26.67 -4.8400002 13
33.279999 24.65 -5.7199998 11
36.18 26.67 -4.8600001 13
33.34 24.59 -5.7199998 11
36.389999 26.700001 -4.8800001 14
33.41 24.52 -5.73 11
36.549999 26.700001 -4.8899999 14
33.48 24.459999 -5.73 11
36.740002 26.700001 -4.9099998 14
33.57 24.4 -5.73 11
36.889999 26.690001 -4.9200001 14
33.650002 24.35 -5.7399998 11
37.049999 26.68 -4.9299998 14
33.73 24.290001 -5.7399998 11
37.240002 26.68 -4.9499998 14
33.77 24.200001 -5.7399998 11
37.470001 26.73 -4.9699998 14
33.880001 24.17 -5.75 11
37.689999 26.76 -4.9899998 14
33.939999 24.1 -5.75 11
43.73 30.9 -5.79 29
34.040001 24.049999 -5.7600002 11
43.5 30.59 -5.75 28
34.099998 23.98 -5.7600002 11
43.66 30.559999 -5.7600002 28
34.200001 23.940001 -5.77 11
43.330002 30.17 -5.71 27
34.25 23.860001 -5.77 11
42.880001 29.719999 -5.6399999 27
34.330002 23.799999 -5.77 11
43.060001 29.709999 -5.6500001 27
34.419998 23.75 -5.7800002 11
42.919998 29.469999 -5.6300001 27
34.470001 23.67 -5.7800002 11
42.779999 29.219999 -5.6100001 26
34.580002 23.620001 -5.79 11
42.689999 29.030001 -5.5900002 26
34.630001 23.549999 -5.79 11
42.610001 28.83 -5.5700002 26
34.68 23.469999 -5.79 11
42.77 28.799999 -5.5799999 26
34.790001 23.43 -5.8000002 11
42.889999 28.74 -5.5900002 26
34.849998 23.360001 -5.8000002 11
43.009998 28.68 -5.5900002 26
34.93 23.290001 -5.8000002 11
35.02 23.24 -5.8099999 11
42.849998 28.299999 -5.5599999 25
35.040001 23.139999 -5.8099999 11
42.779999 28.120001 -5.54 25
35.080002 23.049999 -5.8000002 17
42.779999 27.98 -5.5300002 25
35.119999 22.969999 -5.8000002 17
42.810001 27.860001 -5.5300002 25
35.259998 22.950001 -5.8200002 17
42.84 27.73 -5.52 25
35.439999 22.950001 -5.8400002 11
42.740002 27.540001 -5.5 24
35.549999 22.91 -5.8499999 11
42.709999 27.379999 -5.4899998 24
35.68 22.879999 -5.8600001 11
42.66 27.209999 -5.48 24
35.810001 22.84 -5.8699999 11
42.619999 27.059999 -5.46 24
35.869999 22.77 -5.8800001 11
42.75 27 -5.4699998 16
42.950001 27 -5.4899998 16
43.16 27 -5.5100002 16
43.419998 27.02 -5.5300002 16
43.630001 27.02 -5.5599999 16
43.849998 27.01 -5.5799999 16
44.080002 27.02 -5.5999999 16
44.259998 27 -5.6199999 16
44.380001 26.93 -5.6199999 16
44.459999 26.85 -5.6300001 16
44.549999 26.76 -5.6300001 16
44.669998 26.700001 -5.6399999 16
44.77 26.620001 -5.6399999 16
29.07 17.290001 -4.6799998 7
44.880001 26.549999 -5.6500001 16
29.059999 17.190001 -4.6700001 7
45.009998 26.49 -5.6599998 16
29.15 17.16 -4.6799998 10
45.099998 26.41 -5.6599998 16
29.23 17.120001 -4.6900001 10
45.220001 26.34 -5.6700001 16
45.299999 26.25 -5.6700001 16
29.92 17.35 -4.79 7
45.349998 26.15 -5.6700001 16
29.98 17.290001 -4.79 7
45.490002 26.1 -5.6799998 16
30.040001 17.23 -4.79 11
45.580002 26.01 -5.6900001 16
30.01 17.129999 -4.7800002 10
45.75 25.969999 -5.6999998 16
30.09 17.08 -4.79 7
45.790001 25.85 -5.6999998 16
30.51 17.23 -4.8499999 7
45.880001 25.77 -5.6999998 16
30.280001 17.02 -4.8099999 11
45.990002 25.690001 -5.71 16
46.060001 25.6 -5.7199998 16
46.189999 25.540001 -5.73 16
46.279999 25.450001 -5.73 16
30.219999 16.620001 -4.7800002 7
46.389999 25.379999 -5.73 16
30.4 16.629999 -4.8000002 7
46.459999 25.280001 -5.7399998 16
29.67 16.15 -4.6799998 6
46.68 25.27 -5.7600002 16
29.629999 16.040001 -4.6700001 10
32.5 17.5 -4 8
30.120001 16.219999 -4.7399998 10
32.509998 17.41 -4 8
30.25 16.200001 -4.75 7
32.52 17.32 -4 8
30.379999 16.18 -4.77 10
32.529999 17.23 -3.99 8
30.59 16.200001 -4.79 7
32.580002 17.16 -3.99 7
30.440001 16.040001 -4.77 6
32.630001 17.1 -3.99 7
30.639999 16.059999 -4.79 7
32.689999 17.030001 -4 7
30.860001 16.08 -4.8200002 7
32.77 16.99 -4 7
31.17 16.15 -4.8600001 7
32.810001 16.92 -4 7
31.23 16.1 -4.8699999 7
32.889999 16.860001 -4.0100002 7
31.4 16.1 -4.8899999 7
33.02 16.83 -4.02 7
31.6 16.110001 -4.9099998 7
47.93 24.299999 -5.8299999 16
47.91 24.15 -5.8200002 16
32.110001 16.190001 -4.98 7
47.98 24.040001 -5.8200002 16
32.330002 16.209999 -5.0100002 7
48.060001 23.959999 -5.8200002 16
48.029999 23.809999 -5.8200002 16
48.139999 23.719999 -5.8299999 16
48.34 23.690001 -5.8499999 16
48.560001 23.67 -5.8699999 16
48.830002 23.66 -5.8899999 16
39.48 19.129999 -6.0799999 10
39.57 19.07 -6.0900002 11
39.68 19.01 -6.0999999 11
39.849998 18.98 -6.1199999 11
39.880001 18.889999 -6.1199999 11
39.900002 18.780001 -6.1199999 11
39.959999 18.700001 -6.1199999 11
40.07 18.65 -6.1300001 11
40.139999 18.57 -6.1300001 11
40.119999 18.450001 -6.1199999 11
40.34 18.33 -6.1399999 10
40.34 18.23 -6.1399999 10
40.41 18.139999 -6.1500001 10
50.200001 22.4 -5.98 16
40.509998 18.08 -6.1599998 11
50.150002 22.25 -5.96 16
40.619999 18.030001 -6.1700001 10
50.290001 22.18 -5.9699998 16
40.630001 17.92 -6.1599998 10
40.669998 17.83 -6.1599998 10
40.73 17.74 -6.1700001 10
50.650002 21.93 -6 16
40.779999 17.66 -6.1700001 10
50.709999 21.82 -6 16
40.880001 17.6 -6.1799998 10
40.919998 17.5 -6.1799998 10
41.110001 17.469999 -6.1999998 10
41.139999 17.370001 -6.1999998 10
41.130001 17.26 -6.1900001 10
41.209999 17.190001 -6.1999998 10
41.380001 17.15 -6.2199998 10
41.349998 17.030001 -6.21 10
41.490002 16.98 -6.2199998 10
41.529999 16.879999 -6.2199998 10
41.630001 16.82 -6.23 10
41.689999 16.73 -6.2399998 10
41.759998 16.65 -6.2399998 10
41.759998 16.549999 -6.2399998 10
51.990002 20.459999 -6.0799999 16
41.84 16.459999 -6.25 10
51.93 20.309999 -6.0700002 16
41.889999 16.379999 -6.25 10
52.110001 20.23 -6.0799999 16
41.880001 16.26 -6.2399998 10
52.23 20.15 -6.0900002 16
42.009998 16.209999 -6.25 10
52.34 20.059999 -6.0999999 16
41.950001 16.08 -6.2399998 10
41.82 15.92 -6.2199998 16
41.889999 15.84 -6.2199998 15
42.139999 15.83 -6.25 10
42.189999 15.74 -6.2600002 10
42.369999 15.7 -6.2800002 10
42.41 15.61 -6.2800002 10
42.48 15.52 -6.2800002 10
42.549999 15.44 -6.29 10
42.66 15.37 -6.3000002 10
42.740002 15.29 -6.3099999 10
42.790001 15.2 -6.3099999 10
42.919998 15.14 -6.3200002 10
42.939999 15.04 -6.3200002 10
43.049999 14.96 -6.3299999 10
43.18 14.9 -6.3499999 10
43.18 14.79 -6.3499999 10
43.240002 14.71 -6.3499999 10
43.209999 14.59 -6.3400002 10
43.32 14.52 -6.3499999 10
43.349998 14.42 -6.3499999 10
43.380001 14.32 -6.3499999 10
43.5 14.25 -6.3600001 10
43.580002 14.17 -6.3699999 10
43.57 14.07 -6.3699999 10
43.650002 13.98 -6.3699999 10
43.790001 13.91 -6.3899999 10
43.790001 13.8 -6.3800001 10
54.779999 17.139999 -6.25 16
43.869999 13.72 -6.3899999 10
54.75 16.99 -6.25 16
43.970001 13.65 -6.4000001 10
54.919998 16.91 -6.2600002 16
43.990002 13.54 -6.4000001 10
54.939999 16.780001 -6.2600002 16
44.139999 13.48 -6.4200001 10
55.040001 16.67 -6.27 16
44.23 13.4 -6.4299998 10
55.189999 16.59 -6.2800002 16
44.310001 13.21 -6.4299998 10
55.240002 16.33 -6.2800002 16
44.470001 13.14 -6.4499998 10
55.439999 16.25 -6.3000002 16
44.450001 13.03 -6.4499998 10
55.599998 16.17 -6.3200002 16
44.470001 12.93 -6.4499998 10
33.599998 9.6899996 -4.8699999 6
33.610001 9.6099997 -4.8600001 6
33.599998 9.5299997 -4.8600001 6
39.470001 11.1 -5.71 8
39.709999 11.07 -5.7399998 8
53.860001 14.88 -6.0999999 15
35.360001 9.7700005 -5.1100001 6
53.77 14.73 -6.0799999 15
35.400002 9.6999998 -5.1100001 6
53.830002 14.6 -6.0799999 15
35.41 9.6099997 -5.1100001 6
53.619999 14.42 -6.0599999 15
53.540001 14.28 -6.04 15
37.220001 9.9300003 -5.3600001 7
53.580002 14.15 -6.0500002 30
37.23 9.8299999 -5.3600001 7
53.599998 14.03 -6.04 60
37.220001 9.75 -5.3499999 7
53.669998 13.92 -6.0500002 15
39.040001 10.03 -5.6100001 11
53.990002 13.75 -6.0799999 15
39.02 9.9399996 -5.5999999 7
53.860001 13.58 -6.0599999 14
39.02 9.8400002 -5.5999999 7
54 13.49 -6.0700002 15
54.360001 13.45 -6.1100001 15
44.84 11.1 -6.4299998 10
44.84 10.99 -6.4299998 15
57.32 13.91 -6.4400001 16
44.869999 10.89 -6.4299998 15
57.299999 13.77 -6.4299998 16
44.919998 10.79 -6.4400001 15
42.689999 10.16 -4.79 9
44.950001 10.69 -6.4400001 15
42.73 10.07 -4.79 9
44.290001 10.33 -4.96 9
45.099998 10.52 -6.4499998 15
44.34 10.24 -4.9699998 9
45.25 10.45 -6.4699998 10
46.119999 10.43 -5.1599998 10
46.150002 10.33 -5.1599998 10
47.889999 10.61 -5.3499999 11
41.82 9.2600002 -5.9699998 8
47.93 10.5 -5.3499999 11
42.139999 9.2299995 -6.0100002 8
49.720001 10.66 -5.5500002 12
45.709999 9.8000002 -6.5100002 15
49.77 10.55 -5.5500002 12
45.77 9.71 -6.52 15
51.549999 10.81 -5.75 13
45.869999 9.6199999 -6.5300002 10
51.709999 10.72 -5.7600002 13
46.009998 9.54 -6.5500002 10
57.599998 11.81 -6.4299998 16
45.93 9.4200001 -6.54 15
57.720001 11.69 -6.4400001 16
46.139999 9.3500004 -6.5599999 15
57.849998 11.59 -6.4499998 16
46.509998 9.3199997 -6.6100001 16
57.98 11.48 -6.46 16
46.689999 9.25 -6.6399999 10
57.98 11.34 -6.46 16
46.830002 9.1599998 -6.6500001 10
52.189999 10.09 -5.8099999 13
46.939999 9.0799999 -6.6700001 10
52.23 9.9799995 -5.8099999 13
47.009998 8.9799995 -6.6700001 10
52.240002 9.8599997 -5.8099999 13
47.07 8.8800001 -6.6799998 10
53.860001 10.04 -5.9899998 14
46.990002 8.7600002 -6.6700001 16
54.290001 9.9899998 -6.04 14
47.040001 8.6499996 -6.6700001 16
58.700001 10.67 -6.52 16
47.380001 8.6099997 -6.71 10
58.77 10.54 -6.5300002 16
59.009998 10.45 -6.5500002 16
59.09 10.33 -6.5599999 16
59.060001 10.18 -6.5500002 16
59.720001 10.16 -6.6199999 17
60.040001 10.08 -6.6599998 17
60.119999 9.9499998 -6.6599998 17
60.34 9.8500004 -6.6900001 17
60.419998 9.7299995 -6.6900001 17
60.189999 9.54 -6.6599998 17
60.619999 9.4700003 -6.7199998 17
45.259998 6.96 -6.3899999 9
45.07 6.8299999 -6.3600001 254
45.040001 6.73 -6.3600001 255
44.959999 6.6100001 -6.3400002 9
44.959999 6.5100002 -6.3400002 9
44.950001 6.4000001 -6.3400002 9
44.919998 6.29 -6.3299999 9
44.91 6.1900001 -6.3299999 9
44.919998 6.0900002 -6.3299999 9
44.919998 5.9899998 -6.3200002 9
44.959999 5.8899999 -6.3299999 9
44.98 5.79 -6.3299999 14
44.98 5.6900001 -6.3299999 14
45.009998 5.5900002 -6.3299999 9
45.099998 5.5 -6.3400002 56
45.119999 5.4000001 -6.3400002 254
45.169998 5.3000002 -6.3499999 254
49.23 5.4400001 -6.9099998 11
49.279999 5.3400002 -6.9200001 11
49.32 5.23 -6.9299998 11
49.07 5.0900002 -6.8899999 11
49.470001 5.02 -6.9499998 11
36.740002 3.3099999 -5.1500001 6
36.5 3.21 -5.1199999 6
36.5 3.1300001 -5.1199999 9
36.540001 3.05 -5.1199999 9
36.52 2.96 -5.1199999 9
36.529999 2.8800001 -5.1199999 9
36.509998 2.79 -5.1100001 6
36.529999 2.72 -5.1199999 6
62.549999 4.5 -6.8699999 17
36.540001 2.6300001 -5.1199999 9
62.630001 4.3699999 -6.8800001 17
36.57 2.5599999 -5.1199999 12
62.490002 4.2199998 -6.8600001 17
36.540001 2.47 -5.1199999 9
62.470001 4.0799999 -6.8600001 17
36.490002 2.3900001 -5.1100001 17
62.549999 3.9400001 -6.8699999 17
36.52 2.3099999 -5.1100001 6
36.580002 2.23 -5.1199999 5
50.849998 1.95 -7.1199999 11
51.060001 1.84 -7.1399999 11
51.009998 1.61 -7.1399999 11
50.669998 1.49 -7.0900002 17
50.740002 1.37 -7.0999999 11
51.200001 1.28 -7.1599998 11
47.900002 0.33000001 -6.6999998 10
47.439999 0.22 -6.6399999 34
47.439999 0.12 -6.6399999 253
47.380001 0 -6.6300001 178
47.34 -0.1 -6.6199999 49
47.400002 -0.2 -6.6300001 14
47.32 -0.30000001 -6.6199999 255
47.299999 -0.41 -6.6199999 254
47.310001 -0.51999998 -6.6199999 254
47.330002 -0.63 -6.6199999 254
47.330002 -0.73000002 -6.6199999 254
67.339996 -1.1900001 -7.4000001 20
47.439999 -0.83999997 -6.6399999 15
67.330002 -1.35 -7.4000001 20
47.400002 -0.94999999 -6.6300001 15
47.459999 -1.05 -6.6399999 15
47.59 -1.17 -6.6599998 15
52.459999 -1.64 -7.3499999 12
52.580002 -1.76 -7.3699999 12
52.549999 -1.87 -7.3699999 12
52.52 -1.99 -7.3600001 12
52.52 -2.1099999 -7.3600001 12
52.310001 -2.22 -7.3299999 18
52.490002 -2.3399999 -7.3600001 12
52.919998 -2.5999999 -7.4200001 12
52.959999 -2.72 -7.4299998 12
69.309998 -3.72 -7.6300001 21
52.91 -2.8399999 -7.4200001 12
69.220001 -3.8699999 -7.6199999 21
68.919998 -4.0100002 -7.5900002 21
53.029999 -3.0799999 -7.4400001 12
68.760002 -4.1599998 -7.5700002 21
53.169998 -3.22 -7.46 12
68.650002 -4.3000002 -7.5599999 21
53.220001 -3.3399999 -7.4699998 12
67.989998 -4.4200001 -7.4899998 31
53.220001 -3.46 -7.4699998 12
67.580002 -4.5500002 -7.4499998 20
53.310001 -3.5799999 -7.4899998 12
53.27 -3.6900001 -7.4899998 12
63.41 -4.54 -6.9899998 18
53.43 -3.8299999 -7.5100002 12
62.849998 -4.6500001 -6.9299998 17
70.839996 -5.5599999 -7.8200002 22
71.360001 -5.7600002 -7.8800001 22
53.57 -4.3299999 -7.54 13
71.57 -5.9400001 -7.9000001 23
53.630001 -4.4499998 -7.5500002 13
71.980003 -6.1399999 -7.9499998 23
72.019997 -6.3000002 -7.96 35
53.560001 -4.6900001 -7.54 13
72.519997 -6.5100002 -8.0100002 23
53.529999 -4.8099999 -7.54 13
72.57 -6.6799998 -8.0200005 35
53.189999 -4.8899999 -7.4899998 12
73.010002 -6.8899999 -8.0699997 36
52.810001 -4.98 -7.4400001 12
73.459999 -7.1100001 -8.1199999 24
52.849998 -5.1100001 -7.4400001 19
73.879997 -7.3099999 -8.1700001 24
52.91 -5.2399998 -7.4499998 19
74.050003 -7.5 -8.1899996 37
53.150002 -5.3800001 -7.4899998 19
74.110001 -7.6700001 -8.1999998 24
53.25 -5.5100002 -7.5100002 19
74.970001 -7.9299998 -8.3000002 25
51.459999 -5.4400001 -7.25 255
75.610001 -8.1700001 -8.3699999 26
51.369999 -5.5500002 -7.2399998 255
75.870003 -8.3699999 -8.3999996 26
78.330002 -9 -8.6899996 27
78.839996 -9.2299995 -8.75 28
80.889999 -9.8400002 -8.9799995 29
80.160004 -9.9300003 -8.8999996 29
54.310001 -6.73 -7.6799998 20
79.610001 -10.05 -8.8400002 29
54.34 -6.8600001 -7.6900001 20
79.610001 -10.23 -8.8400002 29
54.560001 -7.0100002 -7.7199998 20
79.510002 -10.41 -8.8400002 29
54.880001 -7.1799998 -7.77 20
79.889999 -10.63 -8.8800001 29
54.91 -7.3099999 -7.77 20
79.43 -10.75 -8.8299999 29
54.77 -7.4099998 -7.7600002 20
55.099998 -7.5900002 -7.8000002 21
36.830002 -5.1500001 -4.0900002 9
55.52 -7.77 -7.8699999 21
36.560001 -5.1999998 -4.0700002 6
56.470001 -8.0299997 -8 14
36.57 -5.2800002 -4.0700002 6
56.580002 -8.1800003 -8.0200005 22
36.689999 -5.3800001 -4.0799999 9
57.130001 -8.3800001 -8.1000004 22
36.25 -5.4000001 -4.04 6
56.98 -8.5 -8.0799999 22
36.32 -5.5 -4.04 9
57.189999 -8.6599998 -8.1199999 22
36.610001 -5.6199999 -4.0799999 9
28.16 -4.3899999 -3.1400001 5
36.509998 -5.6900001 -5.1799998 6
28.18 -4.46 -3.1400001 7
36.599998 -5.79 -5.1999998 12
37.82 -6.0700002 -5.3699999 6
37.720001 -6.1399999 -5.3699999 10
33.150002 -5.4699998 -3.71 5
33.080002 -5.54 -3.7 5
36.419998 -6.2600002 -4.0799999 6
44.57 -7.6700001 -6.3499999 9
36.459999 -6.3600001 -4.0799999 9
44.130001 -7.6999998 -6.29 9
37.630001 -6.7399998 -5.3699999 10
37.689999 -6.8299999 -5.3800001 10
34.790001 -6.3899999 -4.9699998 8
34.880001 -6.48 -4.98 8
34.450001 -6.4899998 -3.8699999 11
34.599998 -6.5999999 -3.8800001 5
34.639999 -6.6799998 -3.8900001 11
35.540001 -7.02 -4 8
35.689999 -7.1399999 -4.0100002 9
33.32 -6.8200002 -4.7800002 5
33.439999 -6.9200001 -4.79 8
35.110001 -7.3499999 -3.96 14
34.389999 -7.1999998 -4.9299998 5
35.290001 -7.4699998 -3.98 5
34.080002 -7.21 -4.8899999 8
35.27 -7.54 -3.98 5
34.360001 -7.3499999 -4.9400001 8
35.259998 -7.6300001 -3.98 8
36.040001 -7.8800001 -4.0700002 9
36.099998 -7.98 -4.0799999 6
34.720001 -7.6700001 -5 8
34.84 -7.7800002 -5.02 5
34.73 -7.8400002 -5 5
34.650002 -7.9099998 -5 5
34.720001 -8 -5.0100002 8
30.49 -7.0999999 -3.46 4
30.290001 -7.0500002 -4.3699999 4
30.42 -7.1500001 -3.45 6
30.190001 -7.0999999 -4.3600001 6
30.440001 -7.23 -3.45 9
30.18 -7.1700001 -4.3600001 6
30.469999 -7.3099999 -3.46 6
30.15 -7.23 -4.3600001 6
29.77 -7.21 -3.3800001 4
30.16 -7.3099999 -4.3600001 6
29.700001 -7.2600002 -3.3800001 4
30.190001 -7.3800001 -4.3699999 4
29.690001 -7.3400002 -3.3800001 6
35.16 -8.7700005 -4 6
34.860001 -8.7700005 -3.97 5
34.52 -8.7700005 -3.9300001 5
33.509998 -8.7600002 -4.8699999 8
33.389999 -8.8100004 -4.8600001 8
38.450001 -10.24 -4.4000001 7
33.43 -8.8999996 -4.8699999 8
38.700001 -10.39 -4.4299998 7
39.470001 -10.69 -5.75 7
39.43 -10.78 -5.75 7
28.139999 -7.9000001 -4.1100001 6
36.23 -10.25 -4.1599998 6
28.4 -8.04 -4.1500001 4
36.360001 -10.38 -4.1799998 6
36.43 -10.49 -4.1900001 6
36.439999 -10.58 -4.1999998 6
39.290001 -11.6 -4.5300002 11
39.009998 -11.61 -4.5 11
36.16 -10.85 -5.3200002 6
36.209999 -10.95 -5.3299999 6
51.48 -15.7 -5.96 13
36.080002 -11.01 -5.3099999 10
51.599998 -15.86 -5.9699998 13
36.040001 -11.08 -5.3099999 10
36.049999 -11.17 -5.3099999 10
36 -11.25 -5.3099999 10
35.990002 -11.33 -5.3099999 10
35.919998 -11.4 -5.3099999 6
35.970001 -11.5 -5.3200002 10
36.700001 -11.83 -4.27 10
35.919998 -11.58 -5.3099999 6
36.810001 -11.96 -4.2800002 7
35.939999 -11.67 -5.3200002 10
36.720001 -12.01 -4.27 7
35.950001 -11.76 -5.3299999 10
36.889999 -12.16 -4.3000002 10
35.919998 -11.84 -5.3200002 6
35.93 -11.94 -5.3299999 6
35.91 -12.02 -5.3299999 6
35.900002 -12.11 -5.3299999 6
35.880001 -12.19 -5.3400002 6
35.93 -12.29 -5.3499999 10
35.939999 -12.39 -5.3499999 10
35.68 -12.39 -5.3200002 10
25.48 -8.9099998 -2.99 3
65.910004 -23.059999 -9.8400002 23
25.5 -8.9799995 -2.99 3
65.82 -23.18 -9.8299999 23
25.700001 -9.1199999 -3.02 3
65.559998 -23.26 -9.8000002 23
65.459999 -23.389999 -9.8000002 23
66.690002 -24 -7.8600001 23
65.209999 -23.459999 -9.7700005 23
66.739998 -24.190001 -7.8699999 24
65.150002 -23.610001 -9.7600002 23
25.440001 -9.2799997 -3 5
64.599998 -23.58 -9.6899996 22
25.530001 -9.3800001 -3.01 3
64.239998 -23.610001 -9.6400003 22
34.959999 -12.93 -4.1300001 13
64.169998 -23.75 -9.6400003 22
35.27 -13.14 -4.1700001 6
64.209999 -23.92 -9.6499996 22
64.019997 -24.02 -9.6300001 33
35.91 -13.56 -4.25 7
64.849998 -24.49 -9.7700005 34
35.950001 -13.67 -4.2600002 7
64.559998 -24.549999 -9.7299995 23
36.34 -13.91 -5.48 7
36.290001 -13.98 -5.48 7
36.279999 -14.07 -5.48 7
34.68 -13.63 -5.25 13
34.700001 -13.73 -5.2600002 13
34.41 -13.7 -5.2199998 13
34.400002 -13.79 -5.2199998 6
33.959999 -13.7 -5.1700001 9
34.040001 -13.82 -5.1799998 9
33.91 -13.86 -4.0599999 6
34.220001 -13.99 -5.2199998 6
33.869999 -13.93 -4.0599999 6
33.77 -13.98 -4.0500002 9
33.630001 -13.92 -5.1300001 9
33.599998 -14 -4.0300002 6
33.630001 -14.01 -5.1399999 9
33.599998 -14.09 -4.04 9
33.080002 -13.87 -5.0599999 6
33.16 -13.99 -5.0799999 9
34.09 -14.48 -5.2199998 6
34.349998 -14.67 -5.27 6
33.740002 -14.59 -5.1799998 9
33.52 -14.59 -5.1599998 6
34.040001 -15 -5.25 10
33.970001 -15.06 -5.2399998 10
33.810001 -15.08 -5.2199998 6
33.869999 -15.2 -5.2399998 6
28.450001 -12.84 -3.46 4
34.060001 -15.37 -5.27 10
28.27 -12.84 -3.4400001 4
33.68 -15.29 -5.2199998 10
28.49 -13.01 -3.47 7
33.75 -15.41 -5.23 10
28.360001 -13.03 -3.46 7
29.790001 -13.69 -4.6300001 5
28.280001 -13.07 -3.46 7
29.91 -13.82 -4.6500001 8
28.18 -13.1 -3.45 4
28.1 -13.14 -3.4400001 4
26.76 -12.73 -3.29 4
26.75 -12.8 -3.29 4
28.379999 -13.97 -3.51 4
28.23 -13.98 -3.5 12
34.040001 -16.950001 -4.2199998 7
33.799999 -16.93 -4.1999998 7
33.810001 -17.030001 -4.1999998 17
26.66 -13.5 -3.3199999 15
23.83 -12.07 -3.77 7
26.9 -13.7 -3.3499999 15
23.940001 -12.19 -3.79 12
25.530001 -13.07 -3.1800001 10
23.860001 -12.22 -3.78 12
25.33 -13.04 -3.1600001 12
23.98 -12.42 -3.8099999 12
23.92 -12.45 -3.8099999 9
23.91 -12.52 -3.8099999 12
24.82 -13.06 -3.96 7
24.75 -13.1 -3.95 9
25.09 -13.35 -4.0100002 6
26.629999 -14.24 -3.3499999 6
24.959999 -13.35 -4 6
26.65 -14.33 -3.3599999 4
24.74 -13.31 -3.97 11
23.809999 -12.87 -3.8199999 9
23.879999 -12.98 -3.02 5
23.690001 -12.88 -3.8099999 3
23.66 -12.94 -2.99 7
23.700001 -12.96 -3.8099999 5
23.610001 -12.97 -2.99 3
23.68 -13.01 -3.8199999 7
23.690001 -13.08 -3.8199999 7
23.799999 -13.22 -3.8399999 7
23.73 -13.24 -3.8399999 5
23.48 -13.18 -3.8 7
23.469999 -13.24 -3.8 7
23.6 -13.38 -3.01 11
23.040001 -13.07 -3.74 7
23.67 -13.49 -3.03 7
22.92 -13.07 -3.72 7
22.85 -13.1 -3.72 5
23.93 -13.78 -3.0699999 7
22.91 -13.2 -3.73 7
23.98 -13.89 -3.0799999 11
22.77 -13.19 -3.72 5
22.790001 -13.27 -3.73 5
23.83 -13.95 -3.0699999 5
22.84 -13.37 -3.74 7
23.790001 -13.99 -3.0699999 5
22.67 -13.33 -3.72 7
23.690001 -14.01 -3.0599999 5
22.6 -13.36 -3.71 10
23.450001 -13.94 -3.04 5
22.59 -13.49 -3.72 8
22.43 -13.47 -3.7 8
22.42 -13.53 -3.7 7
22.41 -13.59 -3.7 7
22.4 -13.65 -3.71 7
23.469999 -14.38 -3.0599999 5
22.530001 -13.81 -3.74 5
23.65 -14.57 -3.0899999 5
22.190001 -13.66 -3.6800001 3
29.59 -18.309999 -3.8699999 9
22.299999 -13.8 -3.71 7
29.780001 -18.52 -3.9000001 9
22.049999 -13.72 -3.6700001 7
29.940001 -18.719999 -3.9300001 9
27.370001 -17.370001 -4.5900002 5
27.18 -17.33 -4.5599999 5
23.57 -15.11 -3.1199999 4
27.01 -17.309999 -4.54 8
23.58 -15.19 -3.1199999 6
27.17 -17.5 -4.5700002 5
23.379999 -15.13 -3.0999999 4
24.139999 -15.7 -4.0700002 4
23.84 -15.58 -3.1700001 8
24.23 -15.83 -4.0900002 6
23.76 -15.61 -3.1600001 10
24.379999 -16.02 -4.1300001 6
23.6 -15.58 -3.1500001 10
22.84 -15.15 -3.05 5
22.700001 -15.13 -3.04 7
22.68 -15.19 -3.04 7
23.049999 -15.74 -3.1099999 14
23.049999 -15.82 -3.1099999 10
22.67 -15.56 -3.8900001 4
23.09 -15.92 -3.1199999 10
22.690001 -15.64 -3.9000001 8
22.370001 -15.49 -3.8499999 3
22.49 -15.65 -3.8800001 6
22.459999 -15.71 -3.8800001 8
26.25 -18.440001 -3.5799999 8
20.209999 -14.2 -3.5 3
26.309999 -18.58 -3.5899999 5
20.120001 -14.2 -3.49 3
22.709999 -16.49 -3.1300001 12
19.959999 -14.49 -3.49 3
22.780001 -16.620001 -3.1400001 4
20 -14.59 -3.5 18
22.35 -16.389999 -3.0899999 6
19.799999 -14.52 -3.48 4
22.139999 -16.309999 -3.0599999 8
19.74 -14.54 -3.47 3
22.200001 -16.43 -3.0799999 6
19.799999 -14.66 -3.49 4
19.67 -14.62 -3.47 3
19.65 -14.68 -3.47 4
19.540001 -14.74 -3.47 3
19.48 -14.76 -3.46 3
19.5 -14.84 -3.47 6
18.24 -13.95 -2.5599999 9
19.43 -14.86 -3.47 4
18.16 -13.95 -2.55 11
18.52 -14.43 -2.6199999 4
18.33 -14.35 -2.5999999 8
19.24 -15.06 -3.46 11
18.200001 -14.31 -2.5799999 11
19.26 -15.14 -3.47 8
18.360001 -14.5 -2.6099999 9
18.4 -14.61 -2.6199999 7
18.26 -14.55 -2.5999999 7
18.24 -14.61 -2.6099999 5
18.59 -14.89 -3.3800001 6
18.35 -14.77 -2.6300001 10
18.540001 -14.92 -3.3699999 6
18.200001 -14.71 -2.6099999 12
18.93 -15.3 -3.45 9
18.35 -14.91 -2.6400001 10
18.719999 -15.21 -3.4200001 12
18.370001 -14.98 -2.6400001 7
18.469999 -15.14 -2.6600001 6
18.620001 -15.26 -3.4100001 16
17.83 -14.68 -2.5799999 5
18.610001 -15.32 -3.4100001 14
17.82 -14.73 -2.5799999 13
18.610001 -15.39 -3.4200001 17
17.77 -14.77 -2.5799999 11
17.76 -14.83 -2.5799999 10
19.24 -16.059999 -3.55 5
18.4 -15.43 -2.6800001 8
19.290001 -16.17 -3.5699999 5
18.41 -15.51 -2.6900001 6
17.139999 -14.57 -3.1900001 9
17.23 -14.71 -3.21 5
16.93 -14.52 -3.1600001 7
17.209999 -14.83 -2.54 10
16.84 -14.51 -3.1500001 2
17.09 -14.8 -2.52 7
17.09 -14.85 -2.53 8
17.01 -14.85 -2.52 7
16.799999 -14.8 -2.5 7
16.76 -14.84 -2.5 5
16.780001 -14.93 -2.51 11
16.299999 -14.57 -2.4400001 5
17.5 -15.64 -3.3299999 6
16.26 -14.59 -2.4400001 6
17.57 -15.77 -3.3499999 11
16.5 -14.87 -2.48 8
17.559999 -15.83 -3.3499999 4
16.549999 -14.99 -2.49 11
17.559999 -15.91 -3.3599999 11
16.15 -14.69 -2.4400001 6
17.530001 -15.94 -3.3599999 3
16.15 -14.76 -2.4400001 10
17.57 -16.059999 -3.3800001 8
17.41 -15.98 -3.3499999 3
17.379999 -16.030001 -3.3499999 3
17.43 -16.15 -3.3699999 8
15.78 -14.68 -2.4100001 11
17.27 -16.07 -3.3499999 4
15.64 -14.62 -2.3900001 10
17.82 -16.73 -3.47 6
17.059999 -16.09 -2.6199999 11
17.620001 -16.620001 -3.4400001 5
16.98 -16.08 -2.6099999 9
16.879999 -16.139999 -2.6099999 9
15.5 -14.81 -3.04 9
16.950001 -16.280001 -2.6300001 12
15.42 -14.81 -3.04 4
16.780001 -16.190001 -2.6099999 3
16.790001 -16.27 -2.6099999 6
16.700001 -16.33 -2.6099999 7
15.2 -14.86 -3.02 5
16.52 -16.219999 -2.5899999 6
15.22 -14.94 -3.03 5
16.52 -16.299999 -2.5899999 7
34.360001 34.220001 -5.5 19
27.24 27.129999 -5.52 18
34.509998 34.209999 -5.5100002 29
27.219999 26.98 -5.5 18
34.860001 34.400002 -5.5500002 20
27.27 26.92 -5.5 18
34.919998 34.310001 -5.5500002 19
27.309999 26.83 -5.4899998 18
35.119999 34.349998 -5.5700002 20
27.33 26.73 -5.48 18
35.080002 34.16 -5.5500002 19
27.33 26.620001 -5.4699998 18
35.360001 34.279999 -5.5799999 20
27.370001 26.530001 -5.4699998 18
35.439999 34.200001 -5.5799999 20
27.42 26.459999 -5.4699998 18
35.610001 34.220001 -5.5999999 19
27.49 26.42 -5.48 17
35.799999 34.240002 -5.6199999 20
27.549999 26.35 -5.48 17
35.919998 34.209999 -5.6300001 20
27.620001 26.299999 -5.48 17
36.060001 34.189999 -5.6399999 20
27.67 26.24 -5.48 17
36.240002 34.200001 -5.6500001 20
27.700001 26.139999 -5.4699998 17
36.450001 34.240002 -5.6700001 20
27.690001 26.02 -5.46 17
36.639999 34.259998 -5.6900001 20
27.67 25.879999 -5.4400001 17
36.779999 34.240002 -5.6999998 20
27.74 25.83 -5.4400001 17
36.959999 34.27 -5.7199998 20
27.84 25.809999 -5.4499998 17
37.130001 34.259998 -5.73 20
27.959999 25.799999 -5.46 17
37.32 34.279999 -5.75 20
28.08 25.799999 -5.48 17
37.490002 34.290001 -5.77 20
28.23 25.83 -5.5 17
37.610001 34.23 -5.77 20
28.33 25.790001 -5.5 17
37.779999 34.23 -5.79 20
28.48 25.809999 -5.52 17
37.900002 34.189999 -5.79 20
28.59 25.799999 -5.5300002 17
38.139999 34.25 -5.8200002 20
28.709999 25.790001 -5.54 17
38.25 34.200001 -5.8200002 20
28.879999 25.82 -5.5599999 17
38.450001 34.220001 -5.8400002 20
28.99 25.799999 -5.5700002 17
31.809999 28.18 -4.8200002 14
29.110001 25.790001 -5.5799999 17
31.68 27.940001 -4.79 13
29.190001 25.75 -5.5900002 17
39.09 34.310001 -5.9000001 20
29.280001 25.709999 -5.5999999 11
39.029999 34.119999 -5.8899999 20
29.35 25.66 -5.5999999 11
39.209999 34.119999 -5.9000001 20
29.43 25.610001 -5.6100001 11
39.32 34.060001 -5.9099998 20
29.51 25.57 -5.6100001 11
39.5 34.060001 -5.9299998 20
29.57 25.5 -5.6100001 11
39.639999 34.02 -5.9299998 20
29.66 25.459999 -5.6199999 11
39.75 33.959999 -5.9400001 20
29.75 25.42 -5.6199999 11
39.849998 33.889999 -5.9400001 20
29.82 25.370001 -5.6300001 11
40.009998 33.880001 -5.96 20
29.91 25.33 -5.6300001 11
40.080002 33.790001 -5.96 20
30.01 25.290001 -5.6399999 11
40.290001 33.810001 -5.98 20
30.059999 25.219999 -5.6399999 11
40.5 33.830002 -6 20
30.15 25.18 -5.6500001 11
31.65 26.32 -4.6799998 12
30.25 25.16 -5.6599998 11
31.74 26.27 -4.6799998 12
30.32 25.09 -5.6599998 11
31.9 26.280001 -4.6900001 12
30.4 25.049999 -5.6599998 11
32.040001 26.27 -4.71 12
30.42 24.950001 -5.6599998 11
32.18 26.27 -4.7199998 12
30.52 24.92 -5.6599998 11
32.369999 26.309999 -4.7399998 12
30.57 24.85 -5.6599998 11
32.639999 26.4 -4.77 13
30.68 24.82 -5.6700001 11
32.790001 26.4 -4.7800002 13
30.73 24.74 -5.6700001 11
32.98 26.440001 -4.8000002 13
30.790001 24.68 -5.6700001 11
33.119999 26.43 -4.8099999 13
30.879999 24.629999 -5.6799998 11
33.279999 26.43 -4.8299999 13
30.959999 24.59 -5.6900001 11
33.48 26.459999 -4.8499999 13
31.049999 24.549999 -5.6900001 11
33.599998 26.440001 -4.8600001 13
31.120001 24.49 -5.6999998 11
33.77 26.459999 -4.8800001 13
31.190001 24.43 -5.6999998 11
33.93 26.450001 -4.8899999 13
31.27 24.379999 -5.6999998 11
34.07 26.440001 -4.9000001 13
31.370001 24.35 -5.71 11
34.259998 26.459999 -4.9200001 13
31.42 24.27 -5.71 11
34.459999 26.5 -4.9400001 13
31.5 24.219999 -5.7199998 11
40.599998 31.08 -5.8200002 18
31.540001 24.139999 -5.71 11
40.57 30.9 -5.8000002 18
31.66 24.120001 -5.73 11
40.529999 30.73 -5.7800002 18
31.719999 24.059999 -5.73 11
40.630001 30.67 -5.79 27
31.780001 23.99 -5.73 11
40.689999 30.559999 -5.79 18
31.91 23.969999 -5.7399998 11
40.240002 30.09 -5.71 26
31.969999 23.91 -5.7399998 11
40.150002 29.879999 -5.6900001 26
32.049999 23.85 -5.75 11
32.080002 23.76 -5.7399998 11
39.25 28.940001 -5.5500002 16
32.16 23.709999 -5.75 11
39.459999 28.950001 -5.5700002 33
32.23 23.65 -5.75 11
39.639999 28.959999 -5.5799999 16
32.310001 23.6 -5.7600002 11
32.389999 23.540001 -5.7600002 11
39.599998 28.65 -5.5599999 24
32.52 23.530001 -5.77 11
39.580002 28.5 -5.5500002 24
32.560001 23.450001 -5.7800002 11
39.639999 28.41 -5.5500002 24
32.599998 23.370001 -5.7800002 11
39.720001 28.34 -5.5599999 24
32.669998 23.309999 -5.7800002 11
39.639999 28.15 -5.5300002 16
32.759998 23.26 -5.79 11
39.66 28.02 -5.5300002 16
32.830002 23.200001 -5.79 11
39.709999 27.92 -5.5300002 16
32.880001 23.129999 -5.79 11
39.77 27.84 -5.5300002 16
32.91 23.040001 -5.7800002 11
39.700001 27.65 -5.5100002 23
32.959999 22.959999 -5.7800002 10
39.59 27.440001 -5.48 23
33.029999 22.9 -5.79 16
39.560001 27.290001 -5.4699998 23
33.110001 22.84 -5.79 16
39.52 27.129999 -5.46 23
33.259998 22.84 -5.8099999 11
39.490002 26.98 -5.4400001 23
33.41 22.83 -5.8299999 11
39.540001 26.879999 -5.4400001 22
33.459999 22.75 -5.8299999 10
39.619999 26.809999 -5.4499998 22
33.580002 22.73 -5.8400002 11
39.759998 26.77 -5.46 15
33.720001 22.709999 -5.8499999 11
39.91 26.75 -5.4699998 15
33.799999 22.65 -5.8600001 11
40.119999 26.75 -5.4899998 15
33.93 22.629999 -5.8699999 11
40.310001 26.75 -5.5100002 15
33.939999 22.530001 -5.8699999 11
40.52 26.76 -5.5300002 15
40.700001 26.75 -5.5500002 15
40.889999 26.74 -5.5599999 15
41.09 26.74 -5.5900002 15
41.25 26.709999 -5.5999999 15
41.299999 26.610001 -5.5999999 15
41.419998 26.559999 -5.6100001 15
41.509998 26.48 -5.6100001 15
41.580002 26.4 -5.6100001 15
41.689999 26.33 -5.6199999 15
41.810001 26.27 -5.6300001 15
41.889999 26.200001 -5.6300001 15
34.790001 21.76 -5.9099998 10
42 26.139999 -5.6399999 15
34.880001 21.709999 -5.9200001 10
42.119999 26.08 -5.6500001 15
42.189999 25.99 -5.6500001 15
34.900002 21.5 -5.9099998 10
42.27 25.91 -5.6500001 15
35.040001 21.48 -5.9200001 10
42.380001 25.85 -5.6599998 15
35.200001 21.469999 -5.9400001 10
42.470001 25.77 -5.6599998 15
28.93 17.549999 -4.8800001 7
42.59 25.719999 -5.6700001 15
28.83 17.41 -4.8499999 7
42.650002 25.620001 -5.6799998 15
28.75 17.27 -4.8400002 7
42.75 25.549999 -5.6799998 15
28.790001 17.209999 -4.8400002 7
42.869999 25.5 -5.6900001 15
28.790001 17.120001 -4.8299999 7
42.919998 25.389999 -5.6900001 15
28.83 17.059999 -4.8299999 7
43.009998 25.309999 -5.6900001 15
28.92 17.02 -4.8400002 7
43.110001 25.25 -5.6999998 15
29.01 16.99 -4.8499999 7
43.200001 25.16 -5.6999998 15
29.059999 16.93 -4.8499999 7
43.290001 25.09 -5.71 15
29.219999 16.940001 -4.8699999 7
43.380001 25.01 -5.71 15
29.23 16.85 -4.8699999 7
43.43 24.91 -5.71 15
29.09 16.690001 -4.8400002 7
43.549999 24.860001 -5.7199998 15
29.18 16.65 -4.8499999 6
43.709999 24.809999 -5.7399998 15
29.299999 16.639999 -4.8600001 7
30.83 17.41 -4.04 7
30.83 17.32 -4.0300002 7
30.85 17.24 -4.0300002 7
30.860001 17.15 -4.0300002 7
30.879999 17.07 -4.0300002 7
30.940001 17.02 -4.0300002 7
30.969999 16.950001 -4.0300002 7
29.25 16 -4.8099999 6
31.040001 16.889999 -4.0300002 7
29.360001 15.98 -4.8200002 6
31.09 16.83 -4.04 7
31.129999 16.76 -4.04 7
31.200001 16.700001 -4.04 7
31.27 16.66 -4.0500002 7
31.33 16.6 -4.0500002 7
31.42 16.559999 -4.0599999 7
31.52 16.52 -4.0599999 7
30.74 16.110001 -5.0100002 7
31.59 16.459999 -4.0700002 7
30.9 16.1 -5.0300002 7
31.66 16.41 -4.0700002 7
31.17 16.16 -5.0700002 7
31.76 16.379999 -4.0799999 7
31.879999 16.34 -4.0900002 7
31.99 16.309999 -4.0999999 7
31.780001 16.200001 -5.1500001 7
32.110001 16.280001 -4.1100001 7
31.889999 16.17 -5.1599998 7
32.240002 16.25 -4.1199999 7
32.209999 16.24 -5.21 7
32.459999 16.27 -4.1500001 7
32.400002 16.24 -5.23 7
32.66 16.280001 -4.1700001 7
32.799999 16.26 -4.1799998 7
32.669998 16.200001 -5.2600002 7
33 16.27 -4.1999998 7
32.880001 16.209999 -5.29 7
38.02 18.42 -6.0999999 10
38.049999 18.33 -6.0999999 10
38.169998 18.290001 -6.1199999 10
38.240002 18.209999 -6.1199999 10
38.27 18.120001 -6.1199999 10
46.91 22.08 -5.9299998 15
38.330002 18.040001 -6.1199999 10
47.150002 22.07 -5.9499998 15
38.369999 17.959999 -6.1199999 10
38.450001 17.9 -6.1300001 10
47.16 21.82 -5.9400001 15
38.509998 17.82 -6.1300001 10
47.32 21.76 -5.96 15
38.599998 17.75 -6.1399999 10
47.41 21.67 -5.96 15
38.610001 17.65 -6.1399999 10
47.560001 21.610001 -5.9699998 15
38.700001 17.59 -6.1399999 10
38.810001 17.540001 -6.1599998 10
38.860001 17.450001 -6.1599998 10
38.91 17.370001 -6.1599998 10
39.009998 17.309999 -6.1700001 10
39.009998 17.200001 -6.1599998 10
39.110001 17.139999 -6.1700001 10
39.200001 17.07 -6.1799998 10
39.27 17.01 -6.1900001 10
39.369999 16.940001 -6.1900001 10
39.459999 16.870001 -6.1999998 10
48.450001 20.59 -6.0300002 15
39.419998 16.75 -6.1900001 10
48.540001 20.5 -6.0300002 15
39.490002 16.68 -6.1999998 10
48.68 20.43 -6.04 15
39.549999 16.6 -6.1999998 10
48.720001 20.32 -6.04 15
48.75 20.200001 -6.04 15
39.799999 16.5 -6.23 10
48.75 20.08 -6.04 15
39.73 16.360001 -6.21 10
48.830002 19.98 -6.04 15
39.759998 16.27 -6.21 10
48.98 19.91 -6.0500002 15
39.849998 16.200001 -6.2199998 10
49.169998 19.860001 -6.0700002 15
39.880001 16.110001 -6.2199998 10
49.169998 19.73 -6.0700002 15
39.939999 16.030001 -6.2199998 10
49.23 19.629999 -6.0700002 15
39.970001 15.94 -6.2199998 10
49.41 19.57 -6.0799999 15
40.009998 15.85 -6.2199998 10
49.59 19.51 -6.0999999 15
40.060001 15.77 -6.23 10
49.619999 19.4 -6.0999999 15
40.16 15.71 -6.2399998 10
40.23 15.62 -6.2399998 10
40.27 15.54 -6.2399998 10
40.41 15.49 -6.2600002 10
40.439999 15.39 -6.2600002 10
40.52 15.32 -6.27 10
50.099998 18.82 -6.1300001 15
40.599998 15.25 -6.27 10
50.139999 18.700001 -6.1300001 15
40.619999 15.15 -6.27 10
50.23 18.610001 -6.1399999 15
40.740002 15.09 -6.29 10
50.27 18.5 -6.1399999 15
40.779999 15.01 -6.29 10
50.360001 18.4 -6.1500001 15
40.869999 14.93 -6.3000002 10
50.43 18.299999 -6.1500001 15
40.900002 14.84 -6.3000002 10
50.470001 18.18 -6.1500001 15
40.970001 14.76 -6.3000002 10
50.599998 18.1 -6.1599998 15
41.040001 14.68 -6.3099999 10
50.740002 18.030001 -6.1700001 15
41.110001 14.61 -6.3200002 10
50.790001 17.91 -6.1700001 15
41.16 14.51 -6.3200002 10
41.220001 14.44 -6.3200002 10
41.279999 14.35 -6.3299999 10
41.299999 14.25 -6.3200002 10
41.360001 14.17 -6.3299999 10
51.209999 17.42 -6.1999998 15
41.419998 14.09 -6.3299999 9
51.360001 17.34 -6.21 15
41.470001 14 -6.3400002 10
51.400002 17.23 -6.21 15
41.52 13.92 -6.3400002 10
41.619999 13.84 -6.3499999 10
51.5 17 -6.2199998 15
41.73 13.78 -6.3699999 10
51.57 16.889999 -6.23 15
41.73 13.67 -6.3600001 9
51.610001 16.780001 -6.23 15
41.82 13.6 -6.3699999 10
51.689999 16.690001 -6.23 15
41.91 13.53 -6.3800001 10
51.740002 16.559999 -6.23 15
41.939999 13.43 -6.3800001 10
51.880001 16.48 -6.25 15
41.98 13.34 -6.3800001 10
51.869999 16.35 -6.2399998 15
42.099998 13.27 -6.4000001 10
52.02 16.27 -6.25 15
42.16 13.19 -6.4000001 10
52.119999 16.18 -6.2600002 15
42.23 13.11 -6.4099998 10
52.240002 16.08 -6.27 15
42.27 13.01 -6.4099998 10
52.34 15.99 -6.2800002 15
42.369999 12.94 -6.4200001 10
52.360001 15.86 -6.2800002 15
31.76 9.6199999 -4.8099999 5
52.529999 15.79 -6.29 15
31.74 9.54 -4.8000002 5
52.59 15.68 -6.3000002 15
31.780001 9.4700003 -4.8000002 5
52.650002 15.56 -6.3000002 15
31.889999 9.4300003 -4.8200002 8
52.790001 15.48 -6.3099999 15
37.41 10.97 -5.6500001 7
52.82 15.36 -6.3099999 15
37.77 10.99 -5.6999998 11
33.57 9.6800003 -5.0599999 6
52.990002 15.15 -6.3200002 15
33.599998 9.6099997 -5.0599999 6
53.080002 15.04 -6.3299999 15
33.619999 9.5299997 -5.0599999 6
53.130001 14.94 -6.3299999 15
53.200001 14.83 -6.3400002 15
53.259998 14.71 -6.3499999 15
35.380001 9.7700005 -5.3200002 6
53.34 14.61 -6.3499999 15
35.41 9.6999998 -5.3200002 6
53.400002 14.49 -6.3600001 15
35.400002 9.6099997 -5.3200002 6
53.48 14.38 -6.3600001 15
53.599998 14.29 -6.3699999 15
37.220001 9.9300003 -5.5900002 7
53.84 14.22 -6.4000001 15
37.220001 9.8299999 -5.5799999 7
37.240002 9.75 -5.5799999 7
42.75 10.99 -6.4000001 9
42.689999 10.87 -6.3899999 14
54.029999 13.62 -6.4000001 15
42.740002 10.78 -6.3899999 14
54.150002 13.53 -6.4099998 15
42.849998 10.7 -6.4000001 9
40.75 10.09 -4.8200002 8
42.82 10.6 -6.4000001 14
40.740002 9.9799995 -4.8200002 8
42.869999 10.51 -6.4000001 14
40.779999 9.8999996 -4.8200002 8
42.93 10.42 -6.4099998 14
43 10.33 -6.4099998 14
42.52 10.12 -5.02 9
43.040001 10.24 -6.4200001 14
42.57 10.03 -5.02 9
38.459999 9.0600004 -5.73 7
44.279999 10.32 -5.2199998 10
38.68 9.0200005 -5.7600002 7
44.349998 10.24 -5.23 10
46.220001 10.56 -5.4499998 10
40 9.1400003 -5.96 8
46.110001 10.43 -5.4400001 10
40.400002 9.1400003 -6.0100002 8
46.130001 10.33 -5.4400001 10
43.48 9.7299995 -6.4699998 14
47.91 10.61 -5.6399999 11
